# .PCD v.7 - Point Cloud Data file format
VERSION .7
FIELDS x y z i
SIZE 4 4 4 4
TYPE F F F F
COUNT 1 1 1 1
WIDTH 1478
HEIGHT 1
VIEWPOINT 0 0 0 1 0 0 0)
POINTS 1478
DATA ascii
474239.979999 4423083.67 0.82 26.0
474240.0 4423083.68 0.83 49.0
474240.03 4423083.68 0.84 36.0
474240.08 4423083.67 0.87 59.0
474239.93 4423083.71 0.76 20.0
474239.969999 4423083.7 0.79 26.0
474239.99 4423083.7 0.8 56.0
474240.03 4423083.71 0.81 66.0
474240.059999 4423083.7 0.84 69.0
474239.969999 4423083.72 0.78 49.0
474240.01 4423083.73 0.79 43.0
474240.050001 4423083.72 0.82 49.0
474239.93 4423083.74 0.74 49.0
474239.950001 4423083.74 0.75 108.0
474240.03 4423083.74 0.79 66.0
474239.880001 4423083.77 0.68 33.0
474239.91 4423083.78 0.7 89.0
474239.92 4423083.76 0.71 62.0
474239.94 4423083.77 0.73 167.0
474239.979999 4423083.78 0.73 89.0
474240.0 4423083.76 0.76 46.0
474240.02 4423083.77 0.76 49.0
474239.85 4423083.79 0.67 75.0
474239.960001 4423083.8 0.71 98.0
474240.01 4423083.79 0.74 66.0
474239.809999 4423083.83 0.61 46.0
474239.86 4423083.82 0.65 59.0
474239.92 4423083.81 0.68 69.0
474239.960001 4423083.83 0.68 92.0
474239.99 4423083.81 0.71 118.0
474239.83 4423083.84 0.63 98.0
474239.84 4423083.84 0.62 115.0
474239.899999 4423083.84 0.66 69.0
474239.969999 4423083.85 0.66 108.0
474240.0 4423083.85 0.69 92.0
474239.809999 4423083.88 0.56 62.0
474239.819999 4423083.86 0.58 66.0
474239.84 4423083.87 0.6 187.0
474239.86 4423083.87 0.61 92.0
474239.86 4423083.86 0.63 102.0
474239.899999 4423083.87 0.63 115.0
474239.91 4423083.88 0.62 89.0
474239.94 4423083.86 0.66 75.0
474239.950001 4423083.87 0.65 62.0
474239.969999 4423083.87 0.64 128.0
474239.83 4423083.89 0.57 187.0
474239.86 4423083.9 0.58 105.0
474239.870001 4423083.89 0.61 102.0
474239.75 4423083.92 0.48 131.0
474239.800001 4423083.91 0.53 66.0
474239.819999 4423083.92 0.55 187.0
474239.889999 4423083.92 0.58 118.0
474239.92 4423083.91 0.61 105.0
474239.94 4423083.92 0.6 89.0
474239.74 4423083.95 0.45 131.0
474239.790001 4423083.93 0.51 62.0
474239.819999 4423083.94 0.52 141.0
474239.84 4423083.95 0.53 105.0
474239.85 4423083.93 0.55 98.0
474239.880001 4423083.94 0.56 118.0
474239.94 4423083.94 0.58 115.0
474239.790001 4423083.96 0.48 66.0
474239.809999 4423083.97 0.5 121.0
474239.76 4423083.99 0.43 89.0
474239.78 4423083.98 0.46 66.0
474239.790001 4423083.99 0.92 30.0
474239.800001 4423083.99 0.47 115.0
474239.85 4423083.98 0.5 92.0
474239.899999 4423083.98 0.53 92.0
474239.77 4423084.01 0.9 30.0
474239.78 4423084.01 0.43 30.0
474239.809999 4423084.02 0.91 26.0
474239.86 4423084.01 0.48 59.0
474239.899999 4423084.01 0.51 59.0
474239.719999 4423084.05 0.35 33.0
474239.74 4423084.05 0.85 30.0
474239.75 4423084.03 0.87 39.0
474239.77 4423084.05 0.38 62.0
474239.77 4423084.03 0.41 26.0
474239.790001 4423084.03 0.41 66.0
474239.790001 4423084.04 0.89 20.0
474239.800001 4423084.05 0.42 49.0
474239.819999 4423084.03 0.44 56.0
474239.85 4423084.04 0.45 43.0
474239.870001 4423084.05 0.46 53.0
474239.880001 4423084.03 0.48 53.0
474239.76 4423084.06 0.38 26.0
474239.77 4423084.06 0.86 10.0
474239.790001 4423084.07 0.4 49.0
474239.819999 4423084.06 0.9 36.0
474239.85 4423084.06 0.43 43.0
474239.85 4423084.07 0.9 30.0
474239.710001 4423084.08 0.33 33.0
474239.729999 4423084.08 0.82 36.0
474239.75 4423084.08 0.35 26.0
474239.76 4423084.09 0.84 10.0
474239.78 4423084.09 0.37 49.0
474239.809999 4423084.08 0.87 43.0
474239.819999 4423084.08 0.4 46.0
474239.86 4423084.08 0.43 49.0
474239.870001 4423084.08 0.91 43.0
474239.710001 4423084.12 0.77 30.0
474239.719999 4423084.1 0.79 36.0
474239.74 4423084.11 0.33 26.0
474239.75 4423084.11 0.81 26.0
474239.77 4423084.12 0.34 49.0
474239.78 4423084.12 0.82 36.0
474239.800001 4423084.1 0.85 43.0
474239.809999 4423084.11 0.38 53.0
474239.84 4423084.12 0.85 36.0
474239.84 4423084.12 0.38 53.0
474239.85 4423084.1 0.41 43.0
474239.85 4423084.1 0.88 36.0
474239.86 4423084.11 0.88 49.0
474239.92 4423084.1 0.9 56.0
474239.69 4423084.14 0.74 56.0
474239.74 4423084.14 0.78 20.0
474239.76 4423084.14 0.32 56.0
474239.800001 4423084.13 0.35 53.0
474239.809999 4423084.14 0.83 30.0
474239.85 4423084.13 0.85 39.0
474239.91 4423084.13 0.88 49.0
474239.68 4423084.16 0.72 46.0
474239.719999 4423084.15 0.76 26.0
474239.77 4423084.17 0.77 23.0
474239.77 4423084.15 0.8 43.0
474239.78 4423084.15 0.33 36.0
474239.800001 4423084.17 0.33 33.0
474239.809999 4423084.17 0.8 36.0
474239.819999 4423084.15 0.36 39.0
474239.84 4423084.16 0.83 43.0
474239.889999 4423084.17 0.83 46.0
474239.899999 4423084.15 0.85 46.0
474239.66 4423084.19 0.69 30.0
474239.710001 4423084.18 0.73 26.0
474239.790001 4423084.19 0.78 23.0
474239.819999 4423084.18 0.8 49.0
474239.649999 4423084.21 0.67 36.0
474239.700001 4423084.2 0.71 20.0
474239.76 4423084.2 0.74 30.0
474239.819999 4423084.21 0.78 26.0
474239.870001 4423084.2 0.8 36.0
474239.639999 4423084.23 0.64 36.0
474239.69 4423084.23 0.68 26.0
474239.729999 4423084.24 0.69 43.0
474239.74 4423084.22 0.72 36.0
474239.76 4423084.24 0.72 30.0
474239.790001 4423084.22 0.75 20.0
474239.800001 4423084.23 0.75 26.0
474239.86 4423084.22 0.78 30.0
474239.630001 4423084.26 0.62 30.0
474239.67 4423084.25 0.66 20.0
474239.710001 4423084.26 0.67 49.0
474239.74 4423084.26 0.7 30.0
474239.78 4423084.25 0.73 43.0
474239.84 4423084.25 0.75 46.0
474239.61 4423084.28 0.59 39.0
474239.649999 4423084.29 0.61 30.0
474239.67 4423084.28 0.63 20.0
474239.700001 4423084.29 0.64 43.0
474239.729999 4423084.28 0.67 30.0
474239.77 4423084.28 0.7 39.0
474239.809999 4423084.29 0.7 43.0
474239.819999 4423084.27 0.72 43.0
474239.6 4423084.3 0.56 30.0
474239.69 4423084.31 0.62 43.0
474239.729999 4423084.31 0.65 36.0
474239.76 4423084.3 0.67 43.0
474239.59 4423084.33 0.54 39.0
474239.630001 4423084.34 0.55 26.0
474239.639999 4423084.32 0.58 26.0
474239.67 4423084.33 0.59 56.0
474239.710001 4423084.33 0.62 20.0
474239.75 4423084.32 0.65 33.0
474239.78 4423084.34 0.65 30.0
474239.809999 4423084.32 0.67 46.0
474239.58 4423084.35 0.51 33.0
474239.61 4423084.36 0.53 26.0
474239.66 4423084.36 0.57 43.0
474239.700001 4423084.35 0.6 20.0
474239.74 4423084.35 0.62 26.0
474239.569999 4423084.37 0.49 33.0
474239.639999 4423084.38 0.54 43.0
474239.700001 4423084.38 0.57 46.0
474239.719999 4423084.37 0.6 43.0
474239.78 4423084.37 0.62 36.0
474239.559999 4423084.39 0.46 43.0
474239.59 4423084.41 0.48 30.0
474239.6 4423084.39 0.5 26.0
474239.630001 4423084.4 0.51 49.0
474239.68 4423084.4 0.54 53.0
474239.719999 4423084.4 0.57 59.0
474239.75 4423084.41 0.57 59.0
474239.77 4423084.39 0.6 69.0
474239.540001 4423084.42 0.44 30.0
474239.58 4423084.43 0.45 20.0
474239.620001 4423084.43 0.49 49.0
474239.67 4423084.43 0.52 53.0
474239.700001 4423084.42 0.55 53.0
474239.52 4423084.46 0.39 39.0
474239.53 4423084.44 0.41 30.0
474239.569999 4423084.46 0.43 26.0
474239.61 4423084.45 0.93 20.0
474239.61 4423084.45 0.46 49.0
474239.66 4423084.45 0.49 46.0
474239.67 4423084.46 0.5 66.0
474239.69 4423084.44 0.52 59.0
474239.729999 4423084.46 0.52 69.0
474239.74 4423084.44 0.55 59.0
474239.51 4423084.48 0.36 20.0
474239.550001 4423084.48 0.4 30.0
474239.59 4423084.47 0.91 20.0
474239.6 4423084.47 0.44 49.0
474239.630001 4423084.47 0.94 43.0
474239.639999 4423084.47 0.47 59.0
474239.540001 4423084.5 0.38 20.0
474239.58 4423084.49 0.88 30.0
474239.59 4423084.5 0.41 49.0
474239.620001 4423084.49 0.91 43.0
474239.630001 4423084.5 0.44 59.0
474239.66 4423084.49 0.47 59.0
474239.710001 4423084.49 0.49 69.0
474239.540001 4423084.53 0.35 20.0
474239.559999 4423084.52 0.85 20.0
474239.58 4423084.52 0.39 56.0
474239.61 4423084.52 0.89 23.0
474239.630001 4423084.52 0.42 43.0
474239.630001 4423084.53 0.89 20.0
474239.639999 4423084.51 0.91 20.0
474239.649999 4423084.51 0.44 53.0
474239.67 4423084.52 0.92 26.0
474239.69 4423084.53 0.44 66.0
474239.700001 4423084.51 0.47 69.0
474239.559999 4423084.54 0.83 26.0
474239.559999 4423084.54 0.36 49.0
474239.6 4423084.54 0.86 56.0
474239.61 4423084.54 0.39 46.0
474239.630001 4423084.54 0.42 53.0
474239.66 4423084.55 0.89 53.0
474239.719999 4423084.55 0.91 39.0
474239.540001 4423084.56 0.8 26.0
474239.58 4423084.56 0.84 43.0
474239.6 4423084.57 0.37 46.0
474239.6 4423084.58 0.84 36.0
474239.61 4423084.58 0.37 49.0
474239.620001 4423084.56 0.87 46.0
474239.620001 4423084.56 0.39 53.0
474239.639999 4423084.57 0.87 43.0
474239.66 4423084.58 0.39 66.0
474239.68 4423084.56 0.42 59.0
474239.700001 4423084.57 0.88 56.0
474239.540001 4423084.59 0.78 20.0
474239.569999 4423084.59 0.81 49.0
474239.630001 4423084.6 0.84 66.0
474239.69 4423084.6 0.86 69.0
474239.51 4423084.63 0.73 20.0
474239.52 4423084.61 0.75 26.0
474239.550001 4423084.63 0.76 43.0
474239.559999 4423084.61 0.78 56.0
474239.59 4423084.63 0.79 43.0
474239.6 4423084.61 0.81 46.0
474239.6 4423084.61 0.34 53.0
474239.620001 4423084.62 0.81 53.0
474239.639999 4423084.63 0.34 66.0
474239.649999 4423084.61 0.37 59.0
474239.67 4423084.62 0.83 59.0
474239.53 4423084.65 0.74 49.0
474239.569999 4423084.65 0.76 46.0
474239.6 4423084.65 0.79 59.0
474239.66 4423084.65 0.8 66.0
474239.5 4423084.66 0.7 20.0
474239.58 4423084.67 0.76 49.0
474239.649999 4423084.67 0.78 53.0
474239.469999 4423084.7 0.65 26.0
474239.479999 4423084.68 0.67 26.0
474239.5 4423084.7 0.68 36.0
474239.52 4423084.68 0.71 43.0
474239.540001 4423084.7 0.71 36.0
474239.569999 4423084.68 0.74 46.0
474239.569999 4423084.69 0.74 49.0
474239.639999 4423084.69 0.75 59.0
474239.460001 4423084.72 0.62 20.0
474239.53 4423084.72 0.68 36.0
474239.559999 4423084.72 0.71 49.0
474239.620001 4423084.72 0.73 46.0
474239.44 4423084.74 0.6 30.0
474239.479999 4423084.75 0.63 43.0
474239.5 4423084.73 0.66 56.0
474239.52 4423084.74 0.66 59.0
474239.550001 4423084.74 0.69 66.0
474239.6 4423084.74 0.7 46.0
474239.42 4423084.76 0.57 20.0
474239.460001 4423084.77 0.61 43.0
474239.51 4423084.77 0.64 43.0
474239.53 4423084.76 0.66 49.0
474239.59 4423084.77 0.68 59.0
474239.42 4423084.79 0.55 26.0
474239.460001 4423084.79 0.58 56.0
474239.5 4423084.79 0.61 43.0
474239.52 4423084.79 0.63 49.0
474239.58 4423084.79 0.65 53.0
474239.399999 4423084.81 0.52 26.0
474239.44 4423084.82 0.55 43.0
474239.49 4423084.82 0.58 46.0
474239.51 4423084.81 0.61 53.0
474239.569999 4423084.82 0.63 53.0
474239.399999 4423084.84 0.5 20.0
474239.44 4423084.84 0.53 30.0
474239.469999 4423084.84 0.56 36.0
474239.49 4423084.83 0.58 43.0
474239.550001 4423084.84 0.6 59.0
474239.380001 4423084.86 0.47 20.0
474239.42 4423084.86 0.51 49.0
474239.460001 4423084.86 0.53 43.0
474239.479999 4423084.85 0.56 49.0
474239.540001 4423084.86 0.57 53.0
474239.370001 4423084.88 0.44 20.0
474239.41 4423084.89 0.48 49.0
474239.44 4423084.88 0.51 36.0
474239.479999 4423084.88 0.53 53.0
474239.53 4423084.89 0.55 59.0
474239.36 4423084.91 0.42 26.0
474239.389999 4423084.91 0.92 26.0
474239.399999 4423084.91 0.95 105.0
474239.399999 4423084.91 0.45 56.0
474239.42 4423084.9 0.95 56.0
474239.43 4423084.91 0.48 43.0
474239.460001 4423084.9 0.51 69.0
474239.52 4423084.91 0.52 59.0
474239.35 4423084.93 0.39 30.0
474239.389999 4423084.93 0.43 56.0
474239.399999 4423084.93 0.94 193.0
474239.399999 4423084.93 0.93 62.0
474239.43 4423084.93 0.46 53.0
474239.450001 4423084.93 0.48 82.0
474239.5 4423084.93 0.5 82.0
474239.34 4423084.95 0.37 20.0
474239.35 4423084.96 0.4 157.0
474239.370001 4423084.95 0.4 56.0
474239.380001 4423084.96 0.43 213.0
474239.389999 4423084.95 0.43 69.0
474239.389999 4423084.95 0.91 170.0
474239.41 4423084.96 0.44 219.0
474239.42 4423084.95 0.45 128.0
474239.450001 4423084.95 0.47 219.0
474239.319999 4423084.98 0.38 157.0
474239.34 4423084.97 0.38 108.0
474239.34 4423084.97 0.4 196.0
474239.36 4423084.98 0.87 138.0
474239.389999 4423084.98 0.42 219.0
474239.389999 4423084.98 0.89 170.0
474239.559999 4423084.98 0.92 33.0
474239.33 4423085.0 0.38 196.0
474239.35 4423085.01 0.85 157.0
474239.370001 4423085.0 0.87 170.0
474239.380001 4423085.01 0.39 203.0
474239.550001 4423085.01 0.9 13.0
474239.35 4423085.03 0.84 193.0
474239.36 4423085.03 0.37 203.0
474239.53 4423085.03 0.87 17.0
474239.52 4423085.06 0.85 49.0
474239.309999 4423085.07 0.79 170.0
474239.300001 4423085.09 0.76 193.0
474239.49 4423085.11 0.79 36.0
474239.51 4423085.09 0.82 33.0
474239.309999 4423085.12 0.74 193.0
474239.479999 4423085.13 0.77 39.0
474239.27 4423085.15 0.69 173.0
474239.309999 4423085.15 0.71 193.0
474239.460001 4423085.16 0.74 36.0
474239.27 4423085.17 0.67 157.0
474239.300001 4423085.18 0.69 193.0
474239.450001 4423085.18 0.72 39.0
474239.290001 4423085.21 0.65 105.0
474239.44 4423085.21 0.69 33.0
474239.380001 4423085.23 0.67 128.0
474239.43 4423085.23 0.67 30.0
474239.290001 4423085.25 0.6 115.0
474239.41 4423085.25 0.64 39.0
474239.19 4423085.28 0.48 242.0
474239.27 4423085.28 0.54 66.0
474239.35 4423085.28 0.6 105.0
474239.36 4423085.26 0.62 121.0
474239.380001 4423085.28 0.62 108.0
474239.399999 4423085.28 0.62 36.0
474239.399999 4423085.26 0.64 138.0
474239.309999 4423085.29 0.57 121.0
474239.33 4423085.3 0.57 105.0
474239.36 4423085.3 0.59 108.0
474239.380001 4423085.3 0.59 46.0
474239.210001 4423085.33 0.45 131.0
474239.25 4423085.33 0.49 56.0
474239.27 4423085.31 0.51 59.0
474239.28 4423085.32 0.52 115.0
474239.300001 4423085.31 0.55 115.0
474239.319999 4423085.32 0.55 98.0
474239.35 4423085.33 0.56 108.0
474239.370001 4423085.33 0.56 46.0
474239.19 4423085.34 0.43 121.0
474239.229999 4423085.35 0.46 56.0
474239.26 4423085.35 0.5 115.0
474239.300001 4423085.35 0.52 105.0
474239.35 4423085.35 0.54 39.0
474239.17 4423085.36 0.4 121.0
474239.219999 4423085.37 0.44 59.0
474239.26 4423085.37 0.47 115.0
474239.200001 4423085.39 0.41 49.0
474239.25 4423085.4 0.94 203.0
474239.26 4423085.38 0.96 203.0
474239.309999 4423085.38 0.96 98.0
474239.309999 4423085.38 0.5 82.0
474239.319999 4423085.4 0.49 49.0
474239.319999 4423085.4 0.93 147.0
474239.34 4423085.38 0.51 46.0
474239.35 4423085.4 0.48 75.0
474239.36 4423085.38 0.96 121.0
474239.399999 4423085.38 0.93 157.0
474239.28 4423085.41 0.46 160.0
474239.290001 4423085.41 0.93 118.0
474239.309999 4423085.42 0.91 147.0
474239.309999 4423085.42 0.46 206.0
474239.380001 4423085.41 0.91 173.0
474239.229999 4423085.45 0.89 183.0
474239.24 4423085.43 0.91 203.0
474239.24 4423085.43 0.43 160.0
474239.27 4423085.44 0.43 255.0
474239.27 4423085.43 0.91 118.0
474239.300001 4423085.45 0.88 147.0
474239.370001 4423085.44 0.88 173.0
474239.229999 4423085.46 0.41 180.0
474239.25 4423085.46 0.41 255.0
474239.26 4423085.46 0.88 105.0
474239.290001 4423085.46 0.39 33.0
474239.370001 4423085.46 0.86 173.0
474239.219999 4423085.48 0.86 160.0
474239.25 4423085.48 0.86 105.0
474239.28 4423085.5 0.83 141.0
474239.290001 4423085.48 0.86 147.0
474239.300001 4423085.49 0.38 203.0
474239.33 4423085.48 0.79 85.0
474239.35 4423085.49 0.83 173.0
474239.17 4423085.52 0.81 203.0
474239.219999 4423085.51 0.84 183.0
474239.25 4423085.51 0.83 98.0
474239.319999 4423085.51 0.77 75.0
474239.34 4423085.51 0.81 190.0
474239.139999 4423085.54 0.78 183.0
474239.219999 4423085.54 0.78 141.0
474239.24 4423085.53 0.81 98.0
474239.28 4423085.53 0.78 173.0
474239.28 4423085.53 0.81 147.0
474239.319999 4423085.54 0.74 85.0
474239.09 4423085.57 0.67 115.0
474239.1 4423085.55 0.7 115.0
474239.149999 4423085.55 0.73 59.0
474239.149999 4423085.57 0.76 160.0
474239.17 4423085.57 0.75 98.0
474239.210001 4423085.56 0.78 105.0
474239.210001 4423085.57 0.75 141.0
474239.28 4423085.56 0.75 173.0
474239.309999 4423085.57 0.72 85.0
474239.130001 4423085.58 0.66 98.0
474239.139999 4423085.58 0.71 62.0
474239.16 4423085.58 0.74 108.0
474239.290001 4423085.59 0.73 190.0
474239.09 4423085.6 0.65 72.0
474239.1 4423085.62 0.59 222.0
474239.130001 4423085.6 0.68 62.0
474239.130001 4423085.6 0.63 75.0
474239.149999 4423085.6 0.71 115.0
474239.17 4423085.6 0.73 219.0
474239.17 4423085.62 0.65 82.0
474239.200001 4423085.61 0.73 118.0
474239.219999 4423085.6 0.73 141.0
474239.120001 4423085.63 0.66 46.0
474239.130001 4423085.63 0.61 69.0
474239.139999 4423085.63 0.68 115.0
474239.149999 4423085.64 0.62 62.0
474239.16 4423085.63 0.71 203.0
474239.200001 4423085.63 0.71 105.0
474239.229999 4423085.63 0.7 141.0
474239.09 4423085.65 0.56 255.0
474239.139999 4423085.66 0.58 255.0
474239.17 4423085.66 0.63 46.0
474239.200001 4423085.66 0.68 72.0
474239.229999 4423085.66 0.68 141.0
474239.149999 4423085.67 0.59 62.0
474239.19 4423085.67 0.68 98.0
474239.19 4423085.67 0.66 75.0
474239.03 4423085.69 0.48 255.0
474239.059999 4423085.69 0.51 255.0
474239.09 4423085.68 0.54 255.0
474239.120001 4423085.69 0.56 232.0
474239.18 4423085.69 0.6 30.0
474239.120001 4423085.71 0.53 203.0
474239.149999 4423085.7 0.57 72.0
474239.229999 4423085.7 0.64 33.0
474239.01 4423085.74 0.43 255.0
474239.02 4423085.72 0.46 255.0
474239.03 4423085.73 0.46 222.0
474239.059999 4423085.72 0.48 255.0
474239.1 4423085.74 0.5 255.0
474239.139999 4423085.72 0.54 72.0
474239.17 4423085.72 0.58 26.0
474239.200001 4423085.74 0.58 17.0
474239.210001 4423085.72 0.61 13.0
474239.03 4423085.76 0.43 255.0
474239.1 4423085.76 0.48 242.0
474239.139999 4423085.75 0.52 36.0
474239.17 4423085.75 0.55 30.0
474239.17 4423085.76 0.56 7.0
474239.25 4423085.76 0.96 89.0
474239.03 4423085.79 0.41 255.0
474239.08 4423085.78 0.45 255.0
474239.120001 4423085.77 0.49 59.0
474239.16 4423085.77 0.52 13.0
474239.17 4423085.79 0.53 10.0
474239.200001 4423085.79 0.98 173.0
474239.229999 4423085.79 0.94 85.0
474239.069999 4423085.8 0.43 255.0
474239.08 4423085.8 1.0 160.0
474239.11 4423085.8 0.46 82.0
474239.120001 4423085.8 0.54 118.0
474239.139999 4423085.8 0.98 245.0
474239.149999 4423085.8 0.5 13.0
474239.18 4423085.81 0.95 173.0
474239.19 4423085.81 0.56 160.0
474239.210001 4423085.81 0.91 85.0
474239.059999 4423085.82 0.98 183.0
474239.1 4423085.82 0.44 85.0
474239.11 4423085.82 0.98 98.0
474239.120001 4423085.83 0.95 255.0
474239.149999 4423085.82 0.47 17.0
474239.17 4423085.82 0.51 7.0
474239.03 4423085.86 0.93 203.0
474239.040001 4423085.84 0.95 203.0
474239.069999 4423085.86 0.93 118.0
474239.08 4423085.84 0.41 121.0
474239.09 4423085.84 0.95 98.0
474239.1 4423085.85 0.93 255.0
474239.130001 4423085.86 0.45 10.0
474239.130001 4423085.84 0.45 13.0
474239.16 4423085.84 0.51 102.0
474239.16 4423085.84 0.48 20.0
474239.17 4423085.84 0.92 190.0
474239.200001 4423085.84 0.89 85.0
474239.09 4423085.88 0.9 245.0
474239.11 4423085.87 0.42 13.0
474239.130001 4423085.88 0.43 10.0
474239.149999 4423085.87 0.9 190.0
474239.19 4423085.87 0.86 85.0
474239.01 4423085.91 0.88 203.0
474239.01 4423085.89 0.9 203.0
474239.050001 4423085.91 0.88 105.0
474239.050001 4423085.89 0.9 118.0
474239.08 4423085.9 0.88 245.0
474239.1 4423085.89 0.4 20.0
474239.120001 4423085.91 0.4 10.0
474239.149999 4423085.9 0.87 173.0
474239.08 4423085.93 0.85 219.0
474239.139999 4423085.92 0.85 173.0
474239.01 4423085.94 0.85 183.0
474239.040001 4423085.94 0.85 105.0
474239.130001 4423085.95 0.82 190.0
474239.0 4423085.97 0.83 183.0
474239.03 4423085.97 0.83 98.0
474239.059999 4423085.98 0.8 255.0
474239.069999 4423085.96 0.83 232.0
474239.120001 4423085.97 0.8 190.0
474238.94 4423085.99 0.74 66.0
474238.99 4423085.99 0.8 219.0
474239.02 4423085.99 0.8 98.0
474239.11 4423086.0 0.77 190.0
474238.94 4423086.03 0.75 138.0
474238.960001 4423086.02 0.75 121.0
474238.969999 4423086.02 0.77 203.0
474239.01 4423086.02 0.78 118.0
474239.040001 4423086.01 0.78 255.0
474239.120001 4423086.03 0.75 173.0
474238.969999 4423086.04 0.75 203.0
474239.0 4423086.04 0.75 118.0
474239.040001 4423086.04 0.75 232.0
474238.969999 4423086.08 0.7 98.0
474238.979999 4423086.06 0.73 98.0
474239.0 4423086.08 0.73 180.0
474239.0 4423086.07 0.73 105.0
474239.01 4423086.08 0.73 118.0
474239.059999 4423086.07 0.73 190.0
474239.0 4423086.1 0.7 118.0
474239.02 4423086.1 0.7 118.0
474238.960001 4423086.11 0.68 75.0
474239.050001 4423086.12 0.7 124.0
474238.99 4423086.13 0.67 118.0
474239.040001 4423086.15 0.68 124.0
474239.02 4423086.17 0.65 118.0
474239.02 4423086.17 0.65 108.0
474239.050001 4423086.17 0.66 43.0
474239.08 4423086.2 0.99 79.0
474239.01 4423086.22 1.0 144.0
474239.040001 4423086.22 0.96 79.0
474238.899999 4423086.23 1.03 216.0
474238.92 4423086.24 1.0 245.0
474238.84 4423086.27 0.97 183.0
474238.870001 4423086.25 1.0 144.0
474238.889999 4423086.27 0.98 98.0
474238.91 4423086.26 0.97 255.0
474238.92 4423086.25 1.0 98.0
474238.960001 4423086.27 0.94 190.0
474238.979999 4423086.25 0.97 173.0
474239.02 4423086.25 0.93 85.0
474238.870001 4423086.29 0.95 105.0
474238.889999 4423086.28 0.95 255.0
474239.0 4423086.28 0.91 85.0
474238.809999 4423086.32 0.92 203.0
474238.83 4423086.3 0.95 219.0
474238.85 4423086.32 0.92 105.0
474238.880001 4423086.31 0.92 255.0
474238.950001 4423086.3 0.92 190.0
474238.99 4423086.3 0.88 85.0
474238.800001 4423086.34 0.9 203.0
474238.84 4423086.34 0.9 118.0
474238.870001 4423086.34 0.89 245.0
474238.94 4423086.33 0.89 190.0
474238.979999 4423086.33 0.85 85.0
474238.800001 4423086.37 0.87 203.0
474238.83 4423086.37 0.87 105.0
474238.870001 4423086.36 0.87 219.0
474238.94 4423086.35 0.87 190.0
474238.969999 4423086.36 0.83 85.0
474238.83 4423086.39 0.85 105.0
474238.85 4423086.39 0.85 206.0
474238.93 4423086.38 0.84 173.0
474238.960001 4423086.38 0.8 85.0
474238.790001 4423086.4 0.84 183.0
474238.91 4423086.41 0.82 190.0
474238.960001 4423086.41 0.78 85.0
474238.75 4423086.44 0.79 219.0
474238.78 4423086.42 0.82 183.0
474238.809999 4423086.42 0.82 98.0
474238.819999 4423086.44 0.79 255.0
474238.85 4423086.42 0.82 255.0
474238.91 4423086.44 0.79 190.0
474238.950001 4423086.44 0.75 95.0
474238.75 4423086.46 0.77 118.0
474238.800001 4423086.46 0.77 255.0
474238.809999 4423086.45 0.8 105.0
474238.86 4423086.45 0.76 190.0
474238.93 4423086.46 0.73 85.0
474238.729999 4423086.48 0.74 105.0
474238.78 4423086.49 0.74 232.0
474238.84 4423086.48 0.74 173.0
474238.91 4423086.49 0.7 85.0
474238.74 4423086.51 0.72 98.0
474238.77 4423086.51 0.72 255.0
474238.83 4423086.51 0.71 190.0
474238.880001 4423086.51 0.68 95.0
474238.75 4423086.53 0.69 255.0
474238.819999 4423086.53 0.69 203.0
474238.69 4423086.54 0.69 203.0
474238.710001 4423086.56 0.67 118.0
474238.729999 4423086.54 0.69 118.0
474238.74 4423086.56 0.66 206.0
474238.809999 4423086.56 0.66 173.0
474238.83 4423086.56 0.63 75.0
474238.86 4423086.54 0.65 85.0
474238.67 4423086.58 0.64 203.0
474238.729999 4423086.58 0.64 255.0
474238.800001 4423086.58 0.64 173.0
474238.649999 4423086.61 0.61 203.0
474238.69 4423086.61 0.62 105.0
474238.700001 4423086.59 0.64 98.0
474238.710001 4423086.61 0.61 255.0
474238.78 4423086.6 0.61 190.0
474238.819999 4423086.61 0.57 95.0
474238.83 4423086.59 0.6 95.0
474238.710001 4423086.63 0.59 206.0
474238.77 4423086.63 0.59 190.0
474238.66 4423086.64 0.59 219.0
474238.69 4423086.64 0.59 118.0
474238.719999 4423086.66 0.57 154.0
474238.74 4423086.66 1.05 111.0
474238.78 4423086.65 1.04 147.0
474238.78 4423086.66 0.56 167.0
474238.800001 4423086.64 0.55 85.0
474238.66 4423086.67 0.56 160.0
474238.69 4423086.67 0.57 118.0
474238.710001 4423086.67 1.05 124.0
474238.76 4423086.68 1.02 141.0
474238.800001 4423086.67 0.52 85.0
474238.85 4423086.67 1.02 160.0
474238.69 4423086.7 0.54 98.0
474238.719999 4423086.69 0.54 134.0
474238.719999 4423086.7 0.54 85.0
474238.719999 4423086.7 1.02 89.0
474238.729999 4423086.7 0.99 115.0
474238.74 4423086.69 1.02 46.0
474238.77 4423086.69 0.53 115.0
474238.800001 4423086.7 0.5 95.0
474238.809999 4423086.69 0.99 115.0
474238.61 4423086.73 0.48 49.0
474238.620001 4423086.71 0.51 75.0
474238.68 4423086.73 0.51 53.0
474238.710001 4423086.72 1.0 62.0
474238.710001 4423086.73 0.52 49.0
474238.729999 4423086.72 0.52 89.0
474238.74 4423086.72 1.0 46.0
474238.75 4423086.73 0.97 108.0
474238.78 4423086.71 0.96 108.0
474238.800001 4423086.72 0.51 108.0
474238.649999 4423086.74 0.96 23.0
474238.67 4423086.75 0.49 46.0
474238.700001 4423086.75 0.49 36.0
474238.700001 4423086.75 0.97 33.0
474238.719999 4423086.75 0.49 62.0
474238.75 4423086.75 0.97 20.0
474238.790001 4423086.75 0.49 56.0
474238.809999 4423086.74 0.94 89.0
474238.639999 4423086.77 0.94 33.0
474238.649999 4423086.77 0.46 43.0
474238.69 4423086.78 0.47 30.0
474238.700001 4423086.77 0.95 39.0
474238.719999 4423086.77 0.47 56.0
474238.729999 4423086.77 0.95 13.0
474238.77 4423086.77 0.46 36.0
474238.77 4423086.76 0.94 53.0
474238.819999 4423086.77 0.92 62.0
474238.620001 4423086.79 0.91 49.0
474238.68 4423086.8 0.92 75.0
474238.710001 4423086.79 0.92 46.0
474238.75 4423086.79 0.92 79.0
474238.809999 4423086.8 0.89 72.0
474238.61 4423086.81 0.89 43.0
474238.66 4423086.82 0.89 56.0
474238.69 4423086.82 0.9 46.0
474238.729999 4423086.81 0.89 72.0
474238.59 4423086.84 0.86 49.0
474238.649999 4423086.84 0.87 66.0
474238.68 4423086.84 0.87 46.0
474238.719999 4423086.83 0.87 85.0
474238.78 4423086.85 0.84 79.0
474238.800001 4423086.83 0.86 62.0
474238.58 4423086.86 0.83 43.0
474238.639999 4423086.87 0.85 46.0
474238.67 4423086.87 0.84 46.0
474238.710001 4423086.86 0.84 66.0
474238.569999 4423086.88 0.81 39.0
474238.620001 4423086.89 0.82 46.0
474238.66 4423086.89 0.82 33.0
474238.700001 4423086.89 0.82 53.0
474238.75 4423086.9 0.79 46.0
474238.78 4423086.88 0.81 39.0
474238.559999 4423086.91 0.78 49.0
474238.61 4423086.92 0.79 66.0
474238.649999 4423086.92 0.79 39.0
474238.68 4423086.91 0.79 66.0
474238.550001 4423086.93 0.76 26.0
474238.6 4423086.94 0.77 36.0
474238.630001 4423086.94 0.77 30.0
474238.67 4423086.94 0.76 59.0
474238.729999 4423086.95 0.74 33.0
474238.75 4423086.93 0.76 62.0
474238.630001 4423086.96 0.74 43.0
474238.649999 4423086.97 0.71 49.0
474238.550001 4423086.98 0.68 95.0
474238.559999 4423086.98 0.71 46.0
474238.51 4423087.0 0.69 53.0
474238.51 4423087.02 0.66 95.0
474238.550001 4423087.01 0.65 89.0
474238.58 4423087.01 0.69 39.0
474238.51 4423087.03 0.66 53.0
474238.569999 4423087.04 0.63 95.0
474238.58 4423087.04 0.66 36.0
474238.460001 4423087.07 0.6 39.0
474238.479999 4423087.05 0.63 43.0
474238.540001 4423087.06 0.64 46.0
474238.550001 4423087.05 0.64 75.0
474238.559999 4423087.06 0.64 46.0
474238.719999 4423087.05 1.05 98.0
474238.450001 4423087.09 0.58 49.0
474238.52 4423087.09 0.61 36.0
474238.550001 4423087.09 0.61 33.0
474238.58 4423087.08 0.61 49.0
474238.630001 4423087.08 0.61 53.0
474238.700001 4423087.08 1.02 89.0
474238.44 4423087.12 0.55 43.0
474238.51 4423087.11 0.59 46.0
474238.53 4423087.1 1.07 49.0
474238.550001 4423087.11 0.59 36.0
474238.569999 4423087.11 0.59 56.0
474238.58 4423087.1 1.07 36.0
474238.61 4423087.12 1.04 85.0
474238.649999 4423087.11 0.58 39.0
474238.69 4423087.1 0.99 98.0
474238.49 4423087.13 0.56 43.0
474238.52 4423087.14 0.56 39.0
474238.53 4423087.13 1.04 49.0
474238.559999 4423087.14 0.56 62.0
474238.569999 4423087.13 1.04 39.0
474238.6 4423087.14 1.02 53.0
474238.630001 4423087.13 0.56 39.0
474238.66 4423087.13 0.97 89.0
474238.469999 4423087.15 0.54 43.0
474238.51 4423087.16 0.54 39.0
474238.52 4423087.16 1.02 75.0
474238.540001 4423087.16 0.54 56.0
474238.550001 4423087.15 1.02 33.0
474238.620001 4423087.16 0.53 43.0
474238.620001 4423087.15 0.94 89.0
474238.42 4423087.17 0.5 49.0
474238.469999 4423087.18 0.51 53.0
474238.5 4423087.18 0.99 49.0
474238.5 4423087.19 0.51 39.0
474238.53 4423087.19 0.51 56.0
474238.540001 4423087.18 0.99 39.0
474238.59 4423087.18 0.5 36.0
474238.59 4423087.17 0.99 59.0
474238.6 4423087.17 0.92 85.0
474238.649999 4423087.19 0.86 121.0
474238.479999 4423087.2 0.97 49.0
474238.49 4423087.21 0.49 39.0
474238.51 4423087.21 0.48 56.0
474238.52 4423087.2 0.96 39.0
474238.569999 4423087.2 0.96 72.0
474238.59 4423087.21 0.48 43.0
474238.59 4423087.2 0.89 75.0
474238.479999 4423087.23 0.94 62.0
474238.51 4423087.23 0.94 33.0
474238.559999 4423087.22 0.94 59.0
474238.639999 4423087.22 0.83 72.0
474238.460001 4423087.26 0.91 49.0
474238.5 4423087.25 0.91 39.0
474238.540001 4423087.25 0.91 59.0
474238.450001 4423087.28 0.89 56.0
474238.49 4423087.28 0.89 36.0
474238.53 4423087.27 0.89 66.0
474238.44 4423087.3 0.86 59.0
474238.469999 4423087.3 0.86 36.0
474238.51 4423087.3 0.86 66.0
474238.42 4423087.32 0.84 59.0
474238.460001 4423087.33 0.84 46.0
474238.5 4423087.32 0.84 72.0
474238.41 4423087.35 0.81 59.0
474238.450001 4423087.35 0.81 39.0
474238.49 4423087.35 0.81 66.0
474238.399999 4423087.38 0.79 66.0
474238.43 4423087.38 0.79 46.0
474238.469999 4423087.37 0.78 66.0
474238.380001 4423087.4 0.76 46.0
474238.41 4423087.4 0.76 46.0
474238.469999 4423087.4 0.76 72.0
474238.370001 4423087.42 0.73 66.0
474238.41 4423087.43 0.73 36.0
474238.450001 4423087.42 0.73 72.0
474238.34 4423087.45 0.63 59.0
474238.36 4423087.45 0.71 53.0
474238.399999 4423087.45 0.71 33.0
474238.42 4423087.45 0.6 105.0
474238.44 4423087.45 0.71 59.0
474238.469999 4423087.44 0.66 69.0
474238.33 4423087.47 0.6 39.0
474238.35 4423087.47 0.68 75.0
474238.370001 4423087.47 0.57 82.0
474238.380001 4423087.47 0.68 46.0
474238.42 4423087.47 0.68 72.0
474238.33 4423087.5 0.66 69.0
474238.370001 4423087.5 0.66 46.0
474238.399999 4423087.5 0.66 59.0
474238.479999 4423087.5 0.51 10.0
474238.319999 4423087.52 0.63 46.0
474238.35 4423087.52 0.63 39.0
474238.36 4423087.51 0.58 49.0
474238.389999 4423087.52 0.63 75.0
474238.42 4423087.51 0.55 69.0
474238.51 4423087.52 1.08 53.0
474238.309999 4423087.55 0.6 53.0
474238.34 4423087.54 1.09 49.0
474238.34 4423087.55 0.61 39.0
474238.380001 4423087.54 0.61 62.0
474238.389999 4423087.54 1.09 39.0
474238.44 4423087.54 0.52 46.0
474238.469999 4423087.55 0.56 33.0
474238.49 4423087.54 1.05 53.0
474238.290001 4423087.57 0.58 53.0
474238.33 4423087.57 0.58 36.0
474238.33 4423087.57 1.06 69.0
474238.370001 4423087.57 0.58 49.0
474238.370001 4423087.56 1.06 36.0
474238.469999 4423087.57 1.03 66.0
474238.27 4423087.59 0.56 46.0
474238.319999 4423087.6 0.55 39.0
474238.319999 4423087.59 1.04 56.0
474238.36 4423087.6 0.55 69.0
474238.36 4423087.59 1.04 46.0
474238.460001 4423087.59 1.0 49.0
474238.27 4423087.62 0.53 59.0
474238.300001 4423087.62 1.01 49.0
474238.300001 4423087.62 0.53 39.0
474238.35 4423087.62 1.01 36.0
474238.44 4423087.62 0.98 49.0
474238.300001 4423087.64 0.98 69.0
474238.33 4423087.64 0.99 33.0
474238.43 4423087.65 0.95 62.0
474238.27 4423087.67 0.96 49.0
474238.319999 4423087.66 0.96 39.0
474238.41 4423087.67 0.92 49.0
474238.27 4423087.69 0.93 56.0
474238.309999 4423087.69 0.93 39.0
474238.399999 4423087.7 0.9 53.0
474238.25 4423087.71 0.91 49.0
474238.300001 4423087.71 0.91 39.0
474238.389999 4423087.72 0.87 62.0
474238.24 4423087.74 0.88 49.0
474238.290001 4423087.74 0.88 39.0
474238.229999 4423087.76 0.86 62.0
474238.27 4423087.76 0.86 36.0
474238.370001 4423087.75 0.85 53.0
474238.210001 4423087.79 0.83 66.0
474238.26 4423087.79 0.83 23.0
474238.36 4423087.78 0.82 62.0
474238.35 4423087.8 0.8 56.0
474238.200001 4423087.81 0.8 66.0
474238.24 4423087.81 0.8 49.0
474238.18 4423087.83 0.78 82.0
474238.33 4423087.83 0.77 56.0
474238.319999 4423087.85 0.74 62.0
474238.309999 4423087.88 0.72 53.0
474238.130001 4423087.91 0.7 144.0
474238.300001 4423087.91 0.69 66.0
474238.120001 4423087.93 0.68 144.0
474238.28 4423087.93 0.67 66.0
474238.11 4423087.95 0.65 144.0
474238.26 4423087.96 0.64 53.0
474238.36 4423087.96 1.05 33.0
474238.1 4423087.98 0.62 128.0
474238.149999 4423087.98 1.11 69.0
474238.219999 4423087.99 1.08 59.0
474238.229999 4423087.97 1.1 59.0
474238.26 4423087.98 0.62 56.0
474238.300001 4423087.97 1.08 62.0
474238.09 4423088.0 0.6 144.0
474238.24 4423088.01 0.59 62.0
474238.290001 4423088.0 1.05 53.0
474238.069999 4423088.02 0.57 128.0
474238.120001 4423088.03 1.05 69.0
474238.200001 4423088.02 1.05 59.0
474238.219999 4423088.03 0.57 46.0
474238.27 4423088.03 1.03 53.0
474238.059999 4423088.05 0.55 128.0
474238.19 4423088.04 1.02 79.0
474238.210001 4423088.06 0.54 56.0
474238.26 4423088.05 1.0 56.0
474238.130001 4423088.07 0.53 56.0
474238.18 4423088.07 1.0 72.0
474238.24 4423088.08 0.98 53.0
474238.17 4423088.09 0.97 72.0
474238.229999 4423088.1 0.95 66.0
474238.149999 4423088.12 0.95 85.0
474238.219999 4423088.13 0.92 53.0
474238.139999 4423088.14 0.92 59.0
474238.200001 4423088.15 0.9 49.0
474238.120001 4423088.17 0.9 79.0
474238.19 4423088.18 0.87 66.0
474238.11 4423088.19 0.87 66.0
474238.229999 4423088.2 0.82 43.0
474238.1 4423088.22 0.84 66.0
474238.17 4423088.23 0.82 62.0
474238.18 4423088.21 0.85 53.0
474238.219999 4423088.23 0.79 33.0
474238.08 4423088.25 0.82 72.0
474238.069999 4423088.27 0.79 66.0
474238.149999 4423088.26 0.79 72.0
474238.02 4423088.29 0.78 39.0
474238.050001 4423088.3 0.77 66.0
474238.139999 4423088.29 0.77 53.0
474238.0 4423088.31 0.75 46.0
474238.040001 4423088.32 0.74 79.0
474238.120001 4423088.31 0.74 56.0
474237.96 4423088.33 0.73 85.0
474238.03 4423088.35 0.72 66.0
474238.11 4423088.34 0.72 62.0
474238.16 4423088.34 0.69 39.0
474237.96 4423088.36 0.7 98.0
474237.98 4423088.36 0.69 108.0
474238.08 4423088.36 0.69 59.0
474238.149999 4423088.36 0.66 39.0
474237.94 4423088.38 0.68 89.0
474237.96 4423088.4 0.66 105.0
474237.97 4423088.38 0.69 102.0
474237.98 4423088.39 0.66 134.0
474238.050001 4423088.4 1.13 53.0
474238.059999 4423088.38 0.67 95.0
474238.11 4423088.4 1.11 56.0
474238.19 4423088.39 1.08 33.0
474237.92 4423088.41 0.63 187.0
474237.93 4423088.41 0.65 89.0
474237.94 4423088.42 0.64 105.0
474237.96 4423088.42 0.64 128.0
474237.99 4423088.41 1.12 36.0
474238.0 4423088.41 0.67 124.0
474238.03 4423088.42 1.1 59.0
474238.040001 4423088.41 0.64 157.0
474238.11 4423088.41 0.61 39.0
474238.17 4423088.41 1.06 33.0
474237.91 4423088.43 0.6 187.0
474237.92 4423088.43 0.62 85.0
474237.96 4423088.44 0.61 128.0
474237.97 4423088.44 0.64 124.0
474237.98 4423088.44 1.1 39.0
474238.03 4423088.43 0.61 157.0
474238.059999 4423088.43 0.58 85.0
474238.09 4423088.43 1.08 49.0
474238.16 4423088.44 1.03 53.0
474237.89 4423088.46 0.58 141.0
474237.9 4423088.45 0.6 89.0
474237.93 4423088.45 0.61 105.0
474237.95 4423088.47 0.59 121.0
474237.96 4423088.46 1.07 46.0
474237.97 4423088.46 0.62 124.0
474238.0 4423088.47 1.05 59.0
474238.02 4423088.45 1.08 66.0
474238.02 4423088.46 0.59 157.0
474238.050001 4423088.46 0.56 75.0
474238.08 4423088.45 1.05 43.0
474238.139999 4423088.47 1.0 33.0
474237.89 4423088.48 0.57 85.0
474237.93 4423088.49 0.56 128.0
474237.95 4423088.49 1.05 36.0
474237.98 4423088.49 0.59 66.0
474238.01 4423088.48 0.56 144.0
474238.069999 4423088.48 1.03 56.0
474238.130001 4423088.49 0.98 33.0
474237.94 4423088.51 1.02 49.0
474237.95 4423088.51 0.56 49.0
474237.98 4423088.52 1.0 59.0
474237.99 4423088.5 1.02 66.0
474238.0 4423088.51 0.54 128.0
474238.02 4423088.51 0.59 59.0
474238.059999 4423088.51 1.0 56.0
474238.120001 4423088.52 0.95 43.0
474237.92 4423088.54 0.99 46.0
474238.03 4423088.54 0.56 36.0
474238.040001 4423088.53 0.97 53.0
474237.91 4423088.56 0.97 36.0
474237.96 4423088.55 0.97 66.0
474238.01 4423088.56 0.54 30.0
474238.02 4423088.56 0.95 56.0
474238.050001 4423088.57 0.55 43.0
474237.9 4423088.59 0.94 39.0
474237.95 4423088.58 0.95 66.0
474238.01 4423088.59 0.92 53.0
474237.89 4423088.61 0.92 33.0
474237.94 4423088.6 0.92 59.0
474238.0 4423088.61 0.9 56.0
474238.069999 4423088.6 0.88 43.0
474237.88 4423088.64 0.89 33.0
474237.92 4423088.63 0.89 59.0
474237.99 4423088.64 0.87 56.0
474238.059999 4423088.63 0.85 33.0
474237.86 4423088.66 0.87 46.0
474237.91 4423088.65 0.87 72.0
474237.97 4423088.66 0.85 56.0
474238.03 4423088.65 0.82 62.0
474237.85 4423088.69 0.84 36.0
474237.9 4423088.68 0.84 66.0
474237.95 4423088.69 0.82 95.0
474237.99 4423088.67 0.79 79.0
474237.83 4423088.71 0.81 39.0
474237.88 4423088.7 0.82 72.0
474237.92 4423088.71 0.79 157.0
474237.97 4423088.7 0.77 89.0
474237.85 4423088.72 0.79 134.0
474237.96 4423088.73 0.74 79.0
474237.79 4423088.76 0.76 72.0
474237.83 4423088.75 0.76 141.0
474237.9 4423088.76 0.74 157.0
474237.91 4423088.74 0.77 144.0
474237.96 4423088.75 0.72 75.0
474237.77 4423088.78 0.72 108.0
474237.77 4423088.78 0.72 33.0
474237.79 4423088.78 0.74 46.0
474237.8 4423088.77 0.76 105.0
474237.81 4423088.77 0.74 134.0
474237.94 4423088.78 0.69 69.0
474237.77 4423088.8 0.72 89.0
474237.78 4423088.8 0.68 39.0
474237.78 4423088.81 0.71 46.0
474237.79 4423088.79 0.73 105.0
474237.81 4423088.8 0.71 92.0
474237.88 4423088.81 0.69 115.0
474237.89 4423088.79 0.72 144.0
474237.92 4423088.81 0.67 75.0
474238.02 4423088.79 1.13 33.0
474237.79 4423088.82 0.71 105.0
474237.81 4423088.83 0.69 66.0
474237.82 4423088.83 0.69 20.0
474237.86 4423088.83 1.15 72.0
474237.9 4423088.83 0.64 85.0
474237.93 4423088.82 1.14 53.0
474238.0 4423088.82 1.1 33.0
474237.74 4423088.85 0.62 43.0
474237.79 4423088.84 0.7 154.0
474237.8 4423088.84 0.69 49.0
474237.8 4423088.84 0.67 26.0
474237.8 4423088.85 0.66 72.0
474237.81 4423088.84 1.15 39.0
474237.84 4423088.86 0.68 43.0
474237.84 4423088.85 1.13 66.0
474237.85 4423088.84 0.7 36.0
474237.88 4423088.84 0.67 82.0
474237.9 4423088.86 0.62 69.0
474237.92 4423088.85 1.11 62.0
474237.99 4423088.85 1.08 33.0
474237.74 4423088.87 0.6 46.0
474237.79 4423088.87 1.12 46.0
474237.8 4423088.87 0.66 89.0
474237.8 4423088.87 0.64 26.0
474237.82 4423088.88 0.64 121.0
474237.83 4423088.88 0.67 154.0
474237.83 4423088.88 1.1 79.0
474237.87 4423088.87 0.64 62.0
474237.87 4423088.87 0.69 30.0
474237.89 4423088.87 1.08 49.0
474237.98 4423088.87 1.05 43.0
474237.77 4423088.89 1.1 46.0
474237.79 4423088.89 0.62 20.0
474237.82 4423088.89 0.65 43.0
474237.82 4423088.9 1.08 53.0
474237.83 4423088.9 0.65 236.0
474237.87 4423088.89 0.62 62.0
474237.87 4423088.9 0.66 30.0
474237.88 4423088.9 1.06 46.0
474237.91 4423088.89 0.59 49.0
474237.97 4423088.9 1.03 43.0
474237.76 4423088.92 1.07 46.0
474237.77 4423088.92 0.59 26.0
474237.8 4423088.93 1.05 66.0
474237.8 4423088.93 0.6 53.0
474237.81 4423088.91 0.63 43.0
474237.81 4423088.93 0.63 147.0
474237.83 4423088.91 0.64 89.0
474237.83 4423088.91 0.62 170.0
474237.85 4423088.93 0.63 30.0
474237.88 4423088.93 1.03 62.0
474237.88 4423088.93 0.59 144.0
474237.9 4423088.92 0.56 39.0
474237.95 4423088.93 1.0 33.0
474237.75 4423088.94 1.04 46.0
474237.79 4423088.95 1.02 66.0
474237.81 4423088.95 0.6 118.0
474237.84 4423088.95 0.61 30.0
474237.85 4423088.95 1.01 49.0
474237.86 4423088.94 0.61 131.0
474237.87 4423088.95 0.59 170.0
474237.73 4423088.97 1.02 33.0
474237.77 4423088.98 1.0 59.0
474237.79 4423088.96 0.57 43.0
474237.83 4423088.97 0.58 36.0
474237.84 4423088.96 0.59 128.0
474237.85 4423088.98 0.98 56.0
474237.88 4423088.98 0.57 255.0
474237.92 4423088.98 0.95 33.0
474237.93 4423088.96 0.97 43.0
474237.72 4423088.99 0.99 49.0
474237.76 4423089.0 0.97 66.0
474237.82 4423089.0 0.56 36.0
474237.84 4423088.99 0.56 118.0
474237.71 4423089.02 0.97 46.0
474237.84 4423089.01 0.96 62.0
474237.91 4423089.01 0.92 33.0
474237.7 4423089.04 0.94 49.0
474237.74 4423089.03 0.94 66.0
474237.82 4423089.03 0.93 59.0
474237.89 4423089.03 0.9 43.0
474237.68 4423089.07 0.92 39.0
474237.74 4423089.06 0.92 66.0
474237.81 4423089.06 0.9 62.0
474237.88 4423089.06 0.87 33.0
474237.67 4423089.09 0.89 39.0
474237.71 4423089.1 0.87 66.0
474237.73 4423089.08 0.89 72.0
474237.8 4423089.08 0.88 69.0
474237.87 4423089.09 0.84 43.0
474237.66 4423089.12 0.86 46.0
474237.78 4423089.11 0.85 69.0
474237.84 4423089.11 0.82 79.0
474237.65 4423089.14 0.84 36.0
474237.69 4423089.13 0.84 66.0
474237.76 4423089.14 0.83 89.0
474237.63 4423089.17 0.81 39.0
474237.68 4423089.16 0.82 108.0
474237.8 4423089.17 0.8 128.0
474237.62 4423089.19 0.79 72.0
474237.71 4423089.19 0.79 134.0
474237.62 4423089.21 0.78 154.0
474237.7 4423089.22 0.77 134.0
474237.79 4423089.2 0.78 144.0
474237.84 4423089.22 1.15 43.0
474237.62 4423089.24 0.76 173.0
474237.64 4423089.23 0.76 89.0
474237.62 4423089.25 0.74 124.0
474237.63 4423089.25 0.74 89.0
474237.66 4423089.27 0.74 173.0
474237.73 4423089.25 0.75 141.0
474237.75 4423089.25 1.16 43.0
474237.82 4423089.25 1.13 33.0
474237.61 4423089.28 0.72 124.0
474237.67 4423089.28 1.16 53.0
474237.68 4423089.29 0.71 108.0
474237.73 4423089.28 1.13 46.0
474237.76 4423089.29 0.72 147.0
474237.81 4423089.28 1.1 43.0
474237.61 4423089.31 0.69 118.0
474237.65 4423089.3 1.14 43.0
474237.66 4423089.3 0.71 216.0
474237.72 4423089.31 1.11 56.0
474237.75 4423089.31 0.69 147.0
474237.79 4423089.31 1.07 43.0
474237.63 4423089.33 1.11 59.0
474237.65 4423089.33 0.69 160.0
474237.7 4423089.33 1.08 46.0
474237.7 4423089.33 0.69 131.0
474237.76 4423089.33 1.04 33.0
474237.58 4423089.35 1.1 33.0
474237.62 4423089.35 1.08 43.0
474237.68 4423089.36 1.06 46.0
474237.69 4423089.35 0.66 118.0
474237.76 4423089.36 1.02 43.0
474237.6 4423089.38 1.06 53.0
474237.67 4423089.39 0.64 43.0
474237.67 4423089.39 1.03 56.0
474237.68 4423089.38 0.64 98.0
474237.69 4423089.37 0.67 43.0
474237.7 4423089.37 0.66 69.0
474237.75 4423089.39 0.99 43.0
474237.59 4423089.4 1.03 66.0
474237.66 4423089.41 0.62 43.0
474237.73 4423089.41 0.97 33.0
474237.57 4423089.43 1.0 59.0
474237.65 4423089.44 0.59 43.0
474237.65 4423089.44 0.98 62.0
474237.67 4423089.42 1.0 53.0
474237.71 4423089.44 0.94 43.0
474237.56 4423089.45 0.98 66.0
474237.63 4423089.46 0.96 46.0
474237.55 4423089.48 0.95 59.0
474237.7 4423089.47 0.92 43.0
474237.5 4423089.5 0.94 46.0
474237.55 4423089.51 0.93 36.0
474237.62 4423089.49 0.93 33.0
474237.7 4423089.49 0.89 33.0
474237.49 4423089.52 0.92 33.0
474237.53 4423089.53 0.9 53.0
474237.61 4423089.52 0.9 46.0
474237.68 4423089.52 0.87 33.0
474237.47 4423089.55 0.89 39.0
474237.51 4423089.55 0.88 66.0
474237.59 4423089.54 0.87 53.0
474237.66 4423089.55 0.84 43.0
474237.5 4423089.58 0.85 59.0
474237.58 4423089.57 0.85 59.0
474237.64 4423089.57 0.81 62.0
474237.58 4423089.6 0.83 108.0
474237.49 4423089.61 0.82 134.0
474237.61 4423089.63 0.8 144.0
474237.44 4423089.65 0.79 85.0
474237.52 4423089.64 0.8 170.0
474237.64 4423089.65 1.17 36.0
474237.42 4423089.67 0.78 173.0
474237.44 4423089.68 0.76 89.0
474237.51 4423089.67 0.77 170.0
474237.6 4423089.66 0.77 144.0
474237.62 4423089.68 1.15 23.0
474237.4 4423089.7 0.75 102.0
474237.41 4423089.69 0.76 154.0
474237.55 4423089.7 0.75 170.0
474237.41 4423089.73 0.72 108.0
474237.45 4423089.73 0.73 138.0
474237.47 4423089.72 0.74 108.0
474237.54 4423089.71 1.16 36.0
474237.56 4423089.73 0.73 245.0
474237.6 4423089.73 1.1 33.0
474237.62 4423089.71 1.12 33.0
474237.39 4423089.75 0.7 124.0
474237.49 4423089.75 0.71 98.0
474237.54 4423089.74 1.13 23.0
474237.46 4423089.76 0.71 173.0
474237.52 4423089.77 1.1 53.0
474237.55 4423089.76 0.7 164.0
474237.58 4423089.76 1.07 33.0
474237.36 4423089.79 0.65 124.0
474237.44 4423089.78 0.68 167.0
474237.44 4423089.78 1.11 72.0
474237.48 4423089.8 0.66 118.0
474237.5 4423089.78 0.69 118.0
474237.5 4423089.79 1.07 53.0
474237.56 4423089.79 0.68 128.0
474237.57 4423089.79 1.04 43.0
474237.42 4423089.81 1.08 66.0
474237.45 4423089.82 0.64 141.0
474237.48 4423089.82 1.05 53.0
474237.55 4423089.81 1.02 43.0
474237.41 4423089.84 1.05 72.0
474237.47 4423089.85 1.02 62.0
474237.51 4423089.84 0.62 219.0
474237.54 4423089.84 0.99 43.0
474237.39 4423089.86 1.03 66.0
474237.46 4423089.87 1.0 53.0
474237.53 4423089.87 0.97 43.0
474237.38 4423089.89 1.0 66.0
474237.45 4423089.9 0.97 56.0
474237.51 4423089.89 0.94 43.0
474237.36 4423089.91 0.98 72.0
474237.49 4423089.92 0.91 43.0
474237.43 4423089.93 0.95 66.0
474237.35 4423089.94 0.95 66.0
474237.34 4423089.96 0.93 59.0
474237.42 4423089.95 0.92 53.0
474237.47 4423089.97 0.86 43.0
474237.48 4423089.95 0.89 43.0
474237.32 4423089.99 0.9 66.0
474237.41 4423089.98 0.9 53.0
474237.32 4423090.02 0.87 53.0
474237.38 4423090.0 0.87 49.0
474237.44 4423090.02 0.81 33.0
474237.46 4423090.0 0.84 43.0
474237.3 4423090.04 0.85 59.0
474237.37 4423090.03 0.84 49.0
474237.26 4423090.06 0.82 115.0
474237.36 4423090.05 0.82 66.0
474237.39 4423090.05 0.78 72.0
474237.48 4423090.06 1.15 49.0
474237.25 4423090.08 0.79 134.0
474237.32 4423090.08 0.79 115.0
474237.37 4423090.07 0.76 79.0
474237.49 4423090.08 1.13 49.0
474237.23 4423090.11 0.77 134.0
474237.3 4423090.1 0.76 108.0
474237.36 4423090.1 0.73 79.0
474237.45 4423090.11 1.1 49.0
474237.23 4423090.14 0.74 128.0
474237.3 4423090.13 0.74 115.0
474237.35 4423090.13 0.71 79.0
474237.45 4423090.14 1.08 49.0
474237.22 4423090.16 0.72 128.0
474237.28 4423090.15 0.71 108.0
474237.33 4423090.15 0.68 79.0
474237.2 4423090.18 0.69 128.0
474237.27 4423090.18 0.69 108.0
474237.44 4423090.17 1.05 49.0
474237.19 4423090.21 0.67 128.0
474237.26 4423090.2 0.66 102.0
474237.42 4423090.2 1.03 49.0
474237.24 4423090.23 0.64 102.0
474237.41 4423090.22 1.0 49.0
474237.37 4423090.25 0.97 49.0
474237.28 4423090.27 1.05 43.0
474237.38 4423090.28 0.95 49.0
474237.26 4423090.3 1.02 33.0
474237.36 4423090.31 0.92 49.0
474237.19 4423090.32 1.02 66.0
474237.25 4423090.32 1.0 33.0
474237.34 4423090.33 0.89 49.0
474237.17 4423090.34 1.0 53.0
474237.24 4423090.35 0.97 39.0
474237.16 4423090.37 0.97 59.0
474237.23 4423090.38 0.94 26.0
474237.33 4423090.36 0.87 75.0
474237.15 4423090.39 0.94 59.0
474237.13 4423090.42 0.92 59.0
474237.12 4423090.44 0.89 59.0
474237.1 4423090.47 0.87 59.0
474237.09 4423090.49 0.84 59.0
474237.07 4423090.52 0.81 66.0
474237.23 4423090.52 0.89 13.0
474237.24 4423090.52 0.72 59.0
474237.06 4423090.55 0.79 59.0
474237.11 4423090.54 1.25 66.0
474237.2 4423090.55 0.69 108.0
474237.04 4423090.57 0.76 66.0
474237.18 4423090.57 0.66 121.0
474237.03 4423090.59 0.74 59.0
474237.02 4423090.62 0.71 43.0
474237.0 4423090.64 0.69 43.0
474237.1 4423090.63 0.65 79.0
474237.21 4423090.64 1.03 49.0
474237.21 4423090.67 1.01 49.0
474237.19 4423090.69 0.98 49.0
474237.14 4423090.72 1.01 43.0
474237.19 4423090.72 0.96 49.0
474237.11 4423090.75 0.98 43.0
474237.14 4423090.77 0.9 49.0
474237.16 4423090.75 0.93 49.0
474237.11 4423090.78 0.96 33.0
474237.09 4423090.8 0.93 33.0
474237.13 4423090.8 0.88 49.0
474237.07 4423090.83 0.9 33.0
474237.11 4423090.83 0.85 102.0
474236.99 4423090.85 0.92 30.0
474237.05 4423090.85 0.88 43.0
474237.08 4423090.85 0.83 108.0
474236.97 4423090.87 0.89 39.0
474236.99 4423090.87 0.85 79.0
474237.06 4423090.88 0.8 108.0
474236.95 4423090.9 0.87 33.0
474236.97 4423090.9 0.82 79.0
474237.05 4423090.91 0.77 108.0
474236.94 4423090.93 0.84 39.0
474236.98 4423090.93 0.8 43.0
474237.02 4423090.93 0.75 72.0
474237.06 4423090.92 1.25 36.0
474236.93 4423090.95 0.81 39.0
474236.95 4423090.96 0.9 26.0
474236.96 4423090.95 0.9 13.0
474236.98 4423090.94 1.27 39.0
474236.98 4423090.96 0.77 33.0
474236.98 4423090.95 0.9 23.0
474237.02 4423090.96 0.72 85.0
474237.04 4423090.95 1.23 36.0
474236.91 4423090.98 0.79 30.0
474236.96 4423090.97 1.25 39.0
474236.97 4423090.98 0.75 33.0
474237.03 4423090.97 1.2 36.0
474236.88 4423091.0 0.81 13.0
474236.9 4423091.0 0.76 39.0
474236.92 4423091.0 0.84 20.0
474236.94 4423090.99 1.22 43.0
474236.95 4423091.01 0.72 33.0
474236.96 4423091.0 0.86 17.0
474236.99 4423091.01 0.67 46.0
474237.02 4423090.99 0.7 46.0
474237.05 4423091.01 0.89 23.0
474236.88 4423091.03 0.74 36.0
474236.93 4423091.02 1.19 39.0
474236.87 4423091.05 0.71 33.0
474236.91 4423091.05 1.17 43.0
474236.95 4423091.04 0.7 33.0
474236.96 4423091.05 0.79 23.0
474237.04 4423091.06 0.82 26.0
474236.9 4423091.07 1.14 43.0
474236.99 4423091.18 0.95 49.0
474236.97 4423091.21 0.93 49.0
474236.95 4423091.23 0.9 49.0
474236.93 4423091.26 0.88 49.0
474236.83 4423091.29 0.88 33.0
474236.9 4423091.28 0.85 49.0
474236.97 4423091.3 1.26 49.0
474236.83 4423091.32 0.86 33.0
474236.9 4423091.31 0.82 49.0
474236.81 4423091.35 0.83 33.0
474236.87 4423091.35 1.28 36.0
474236.88 4423091.34 0.8 49.0
474236.96 4423091.33 1.23 49.0
474236.8 4423091.37 0.81 33.0
474236.86 4423091.37 1.25 36.0
474236.88 4423091.37 0.77 49.0
474236.94 4423091.36 1.21 49.0
474236.72 4423091.38 0.83 43.0
474236.77 4423091.38 1.28 46.0
474236.86 4423091.39 0.75 46.0
474236.93 4423091.38 1.18 49.0
474236.7 4423091.41 0.8 43.0
474236.76 4423091.42 0.75 33.0
474236.76 4423091.41 1.25 39.0
474236.78 4423091.4 0.78 43.0
474236.84 4423091.42 0.72 46.0
474236.85 4423091.4 1.22 36.0
474236.91 4423091.41 1.16 49.0
474236.69 4423091.44 0.78 39.0
474236.74 4423091.43 1.23 39.0
474236.83 4423091.43 1.19 36.0
474236.68 4423091.46 0.75 30.0
474236.73 4423091.46 1.2 43.0
474236.75 4423091.45 0.73 43.0
474236.81 4423091.46 1.17 36.0
474236.82 4423091.45 0.69 46.0
474236.67 4423091.49 0.73 33.0
474236.71 4423091.49 1.18 36.0
474236.73 4423091.48 0.71 23.0
