# .PCD v.7 - Point Cloud Data file format
VERSION .7
FIELDS x y z i
SIZE 4 4 4 4
TYPE F F F F
COUNT 1 1 1 1
WIDTH 1438
HEIGHT 1
VIEWPOINT 0 0 0 1 0 0 0)
POINTS 1438
DATA ascii
474215.059999 4423065.27 0.34 37.0
474215.059999 4423065.28 -0.04 165.0
474215.059999 4423065.28 -0.4 93.0
474215.08 4423065.26 -0.37 93.0
474215.11 4423065.28 0.27 55.0
474215.19 4423065.26 -0.71 96.0
474215.2 4423065.26 -0.36 93.0
474215.0 4423065.29 0.38 41.0
474215.03 4423065.3 -0.07 165.0
474215.050001 4423065.3 0.31 37.0
474215.09 4423065.3 0.24 55.0
474215.17 4423065.29 -0.74 106.0
474215.19 4423065.3 -0.39 103.0
474214.989999 4423065.31 0.35 44.0
474215.03 4423065.32 0.28 31.0
474215.040001 4423065.31 -0.43 75.0
474215.08 4423065.33 0.21 55.0
474215.149999 4423065.32 -0.77 117.0
474215.17 4423065.33 -0.42 113.0
474214.970001 4423065.34 0.32 44.0
474215.01 4423065.34 0.25 31.0
474215.159999 4423065.36 -0.45 103.0
474215.18 4423065.35 -0.08 103.0
474214.960001 4423065.37 0.29 41.0
474215.0 4423065.37 0.23 31.0
474215.17 4423065.39 -0.11 93.0
474215.18 4423065.4 -0.7 117.0
474215.159999 4423065.44 -0.73 124.0
474215.18 4423065.43 -0.38 106.0
474215.059999 4423065.46 -0.34 131.0
474215.149999 4423065.47 -0.76 124.0
474215.159999 4423065.47 -0.41 106.0
474214.960001 4423065.5 0.54 41.0
474214.989999 4423065.48 0.57 34.0
474215.03 4423065.48 0.59 31.0
474215.040001 4423065.48 -0.37 106.0
474215.059999 4423065.48 -0.01 158.0
474215.140001 4423065.5 -0.44 117.0
474214.93 4423065.52 -0.07 106.0
474214.95 4423065.53 0.51 34.0
474214.970001 4423065.53 -0.05 127.0
474215.03 4423065.52 -0.4 131.0
474215.130001 4423065.51 -0.78 120.0
474214.93 4423065.54 0.58 68.0
474215.01 4423065.55 -0.43 131.0
474215.050001 4423065.55 -0.05 134.0
474215.069999 4423065.55 0.34 41.0
474214.880001 4423065.58 0.52 51.0
474214.899999 4423065.56 0.55 58.0
474214.92 4423065.58 0.45 31.0
474214.94 4423065.58 -0.01 179.0
474214.94 4423065.56 0.48 37.0
474214.979999 4423065.57 0.02 155.0
474215.03 4423065.57 -0.08 134.0
474215.050001 4423065.57 0.31 48.0
474214.84 4423065.61 0.56 93.0
474214.87 4423065.6 0.49 51.0
474214.909999 4423065.6 0.42 31.0
474215.02 4423065.61 -0.69 96.0
474215.03 4423065.6 0.28 55.0
474215.050001 4423065.61 -0.32 103.0
474215.08 4423065.6 -0.02 144.0
474214.85 4423065.63 0.46 51.0
474214.890001 4423065.63 0.39 31.0
474215.01 4423065.64 -0.71 96.0
474215.02 4423065.62 0.26 37.0
474215.03 4423065.64 -0.35 103.0
474214.83 4423065.65 0.43 44.0
474214.87 4423065.65 0.36 31.0
474214.92 4423065.66 0.05 137.0
474214.819999 4423065.68 0.4 41.0
474214.86 4423065.68 0.33 31.0
474214.86 4423065.69 -0.05 179.0
474214.909999 4423065.68 0.02 137.0
474214.989999 4423065.68 -0.74 96.0
474215.01 4423065.67 -0.38 103.0
474214.790001 4423065.72 0.35 41.0
474214.809999 4423065.7 0.37 41.0
474214.84 4423065.7 0.09 103.0
474214.970001 4423065.71 -0.77 96.0
474214.989999 4423065.7 -0.41 103.0
474214.809999 4423065.75 0.02 137.0
474214.819999 4423065.73 -0.28 110.0
474214.83 4423065.73 0.06 127.0
474214.909999 4423065.73 -0.04 93.0
474214.95 4423065.74 -0.8 106.0
474214.960001 4423065.75 -0.02 224.0
474215.0 4423065.74 0.01 203.0
474214.909999 4423065.78 -0.29 106.0
474214.960001 4423065.78 0.53 58.0
474214.880001 4423065.79 -0.67 127.0
474214.989999 4423065.79 -0.71 117.0
474214.86 4423065.82 -0.7 127.0
474214.890001 4423065.82 -0.32 106.0
474214.94 4423065.83 0.47 51.0
474214.970001 4423065.82 -0.74 124.0
474214.84 4423065.84 -0.73 148.0
474214.880001 4423065.85 0.53 65.0
474214.880001 4423065.84 -0.35 131.0
474214.899999 4423065.84 0.56 75.0
474214.909999 4423065.84 0.04 103.0
474214.909999 4423065.85 0.44 58.0
474214.960001 4423065.86 -0.77 117.0
474214.989999 4423065.84 -0.4 117.0
474214.83 4423065.88 -0.75 103.0
474214.85 4423065.87 -0.38 106.0
474214.86 4423065.88 0.5 75.0
474214.880001 4423065.89 -0.02 158.0
474214.890001 4423065.87 0.41 58.0
474214.899999 4423065.87 0.01 137.0
474214.94 4423065.89 -0.79 134.0
474214.809999 4423065.9 -0.78 144.0
474214.85 4423065.9 0.47 75.0
474214.890001 4423065.9 0.38 41.0
474214.790001 4423065.93 -0.25 93.0
474214.800001 4423065.94 -0.81 124.0
474214.83 4423065.93 0.44 82.0
474214.87 4423065.93 0.35 41.0
474214.890001 4423065.93 -0.27 113.0
474214.710001 4423065.97 0.54 51.0
474214.729999 4423065.95 0.57 58.0
474214.78 4423065.96 -0.28 93.0
474214.790001 4423065.97 0.01 162.0
474214.809999 4423065.95 0.41 65.0
474214.809999 4423065.95 0.04 137.0
474214.86 4423065.96 0.32 51.0
474214.86 4423065.96 0.07 86.0
474214.87 4423065.97 -0.3 103.0
474214.69 4423065.99 0.51 44.0
474214.76 4423065.99 -0.31 93.0
474214.76 4423065.99 -0.02 172.0
474214.78 4423066.0 0.36 65.0
474214.800001 4423065.98 0.39 55.0
474214.86 4423066.0 -0.33 124.0
474214.640001 4423066.01 0.56 89.0
474214.67 4423066.01 0.49 41.0
474214.739999 4423066.02 -0.33 93.0
474214.819999 4423066.01 -0.7 96.0
474214.62 4423066.04 0.53 89.0
474214.649999 4423066.04 0.46 41.0
474214.720001 4423066.05 -0.37 93.0
474214.739999 4423066.04 0.06 137.0
474214.809999 4423066.05 -0.73 96.0
474214.84 4423066.05 0.12 75.0
474214.84 4423066.03 -0.36 113.0
474214.640001 4423066.06 0.43 41.0
474214.720001 4423066.07 0.03 137.0
474214.790001 4423066.07 -0.76 96.0
474214.819999 4423066.07 0.09 75.0
474214.7 4423066.09 0.01 144.0
474214.77 4423066.11 0.15 48.0
474214.78 4423066.11 -0.79 96.0
474214.83 4423066.11 0.04 203.0
474214.640001 4423066.12 0.06 93.0
474214.7 4423066.13 0.09 58.0
474214.739999 4423066.13 0.12 58.0
474214.75 4423066.12 -0.25 110.0
474214.75 4423066.12 -0.02 234.0
474214.819999 4423066.14 0.01 193.0
474214.6 4423066.16 0.0 144.0
474214.630001 4423066.15 0.03 127.0
474214.69 4423066.15 0.18 65.0
474214.729999 4423066.16 -0.28 134.0
474214.68 4423066.18 0.15 75.0
474214.69 4423066.17 -0.67 106.0
474214.720001 4423066.19 -0.3 134.0
474214.76 4423066.18 0.51 68.0
474214.819999 4423066.17 -0.7 106.0
474214.649999 4423066.2 0.12 65.0
474214.68 4423066.21 -0.7 127.0
474214.7 4423066.22 -0.34 131.0
474214.739999 4423066.2 0.48 68.0
474214.800001 4423066.21 -0.73 117.0
474214.640001 4423066.25 -0.76 148.0
474214.67 4423066.24 -0.73 127.0
474214.69 4423066.25 -0.36 106.0
474214.7 4423066.25 0.54 75.0
474214.710001 4423066.24 0.03 131.0
474214.710001 4423066.25 0.43 58.0
474214.729999 4423066.23 0.45 51.0
474214.790001 4423066.24 -0.75 124.0
474214.67 4423066.27 0.51 75.0
474214.7 4423066.27 0.0 103.0
474214.77 4423066.27 -0.78 124.0
474214.62 4423066.29 -0.22 93.0
474214.630001 4423066.3 0.57 34.0
474214.630001 4423066.29 -0.79 103.0
474214.649999 4423066.29 0.48 75.0
474214.75 4423066.3 -0.81 134.0
474214.58 4423066.33 0.51 41.0
474214.59 4423066.31 0.54 41.0
474214.6 4423066.31 -0.25 75.0
474214.61 4423066.33 -0.82 124.0
474214.630001 4423066.31 0.45 55.0
474214.720001 4423066.33 0.12 75.0
474214.720001 4423066.31 -0.26 124.0
474214.559999 4423066.35 0.48 34.0
474214.569999 4423066.34 -0.66 89.0
474214.59 4423066.35 -0.28 93.0
474214.61 4423066.35 0.04 144.0
474214.67 4423066.36 0.06 93.0
474214.7 4423066.34 -0.29 134.0
474214.710001 4423066.36 0.09 86.0
474214.540001 4423066.37 -0.31 155.0
474214.550001 4423066.37 -0.69 103.0
474214.569999 4423066.38 -0.31 93.0
474214.649999 4423066.37 -0.68 106.0
474214.67 4423066.39 0.17 68.0
474214.68 4423066.37 -0.32 103.0
474214.69 4423066.37 0.2 68.0
474214.710001 4423066.38 -0.01 179.0
474214.540001 4423066.41 -0.2 186.0
474214.550001 4423066.4 -0.34 93.0
474214.640001 4423066.41 -0.71 117.0
474214.67 4423066.41 -0.35 103.0
474214.559999 4423066.43 -0.23 65.0
474214.6 4423066.43 0.22 51.0
474214.62 4423066.43 -0.74 137.0
474214.649999 4423066.42 0.14 62.0
474214.489999 4423066.45 -0.21 127.0
474214.52 4423066.45 -0.69 65.0
474214.550001 4423066.45 0.06 120.0
474214.559999 4423066.47 -0.79 58.0
474214.559999 4423066.47 -0.25 55.0
474214.59 4423066.46 -0.2 89.0
474214.59 4423066.47 0.19 51.0
474214.6 4423066.46 -0.77 96.0
474214.62 4423066.47 0.08 62.0
474214.640001 4423066.45 0.11 62.0
474214.470001 4423066.48 -0.24 127.0
474214.5 4423066.48 -0.19 75.0
474214.5 4423066.48 -0.72 72.0
474214.53 4423066.49 -0.28 48.0
474214.53 4423066.49 0.25 55.0
474214.550001 4423066.49 -0.81 58.0
474214.569999 4423066.49 0.16 51.0
474214.58 4423066.49 -0.22 89.0
474214.58 4423066.49 -0.8 58.0
474214.460001 4423066.51 -0.27 127.0
474214.479999 4423066.51 -0.22 82.0
474214.5 4423066.51 -0.75 55.0
474214.51 4423066.52 0.22 65.0
474214.53 4423066.52 -0.31 55.0
474214.559999 4423066.51 0.14 51.0
474214.559999 4423066.52 -0.25 89.0
474214.45 4423066.53 0.28 34.0
474214.45 4423066.54 -0.3 127.0
474214.460001 4423066.53 -0.25 65.0
474214.479999 4423066.53 -0.78 48.0
474214.489999 4423066.54 0.19 65.0
474214.51 4423066.55 -0.66 62.0
474214.540001 4423066.54 0.11 51.0
474214.6 4423066.53 0.03 82.0
474214.43 4423066.58 0.22 31.0
474214.44 4423066.58 -0.31 65.0
474214.44 4423066.56 0.25 31.0
474214.45 4423066.56 -0.28 75.0
474214.460001 4423066.56 -0.81 48.0
474214.479999 4423066.57 0.16 65.0
474214.53 4423066.56 0.07 58.0
474214.550001 4423066.56 -0.28 89.0
474214.569999 4423066.58 0.51 75.0
474214.42 4423066.61 0.19 27.0
474214.45 4423066.61 0.1 55.0
474214.45 4423066.61 -0.18 44.0
474214.470001 4423066.59 0.13 65.0
474214.51 4423066.59 0.05 68.0
474214.390001 4423066.63 0.16 31.0
474214.390001 4423066.66 0.13 27.0
474214.44 4423066.64 0.07 75.0
474214.489999 4423066.65 0.52 79.0
474214.37 4423066.68 0.1 31.0
474214.43 4423066.71 0.55 24.0
474214.35 4423066.94 0.1 34.0
474214.36 4423067.0 0.36 65.0
474214.380001 4423067.01 0.23 75.0
474214.35 4423067.03 0.33 65.0
474214.37 4423067.04 0.2 68.0
474214.290001 4423067.08 0.38 51.0
474214.319999 4423067.08 0.27 72.0
474214.34 4423067.06 0.3 79.0
474214.35 4423067.07 0.17 75.0
474214.28 4423067.1 0.35 51.0
474214.300001 4423067.11 0.24 72.0
474214.34 4423067.09 0.14 75.0
474214.27 4423067.13 0.32 51.0
474214.319999 4423067.12 0.11 68.0
474214.220001 4423067.15 0.4 37.0
474214.239999 4423067.16 -0.14 48.0
474214.25 4423067.16 0.29 51.0
474214.26 4423067.16 -0.24 31.0
474214.27 4423067.16 0.18 65.0
474214.290001 4423067.14 0.21 72.0
474214.290001 4423067.15 -0.21 31.0
474214.309999 4423067.15 0.08 68.0
474214.149999 4423067.18 0.45 24.0
474214.2 4423067.17 0.37 37.0
474214.210001 4423067.17 -0.16 31.0
474214.229999 4423067.18 0.26 51.0
474214.239999 4423067.19 -0.27 44.0
474214.26 4423067.19 0.15 65.0
474214.140001 4423067.2 0.42 24.0
474214.140001 4423067.2 -0.11 37.0
474214.17 4423067.22 0.31 37.0
474214.18 4423067.22 -0.22 48.0
474214.19 4423067.2 0.34 37.0
474214.2 4423067.2 -0.19 31.0
474214.210001 4423067.2 0.23 58.0
474214.239999 4423067.21 0.12 72.0
474214.08 4423067.23 0.47 44.0
474214.12 4423067.23 0.39 24.0
474214.130001 4423067.23 -0.14 37.0
474214.2 4423067.23 0.21 51.0
474214.229999 4423067.24 0.1 72.0
474214.11 4423067.25 0.36 24.0
474214.12 4423067.26 -0.17 37.0
474214.159999 4423067.25 0.28 37.0
474214.159999 4423067.27 -0.81 37.0
474214.17 4423067.25 -0.25 48.0
474214.19 4423067.26 0.18 41.0
474214.08 4423067.29 0.41 27.0
474214.09 4423067.28 0.33 24.0
474214.11 4423067.28 -0.2 37.0
474214.149999 4423067.28 0.25 44.0
474214.149999 4423067.3 -0.84 37.0
474214.18 4423067.29 0.15 51.0
474214.210001 4423067.34 0.42 65.0
474214.0 4423067.43 0.15 41.0
474214.059999 4423067.47 0.48 68.0
474214.1 4423067.45 0.4 51.0
474214.140001 4423067.47 -0.81 37.0
474214.040001 4423067.49 0.45 48.0
474214.050001 4423067.49 -0.08 41.0
474214.09 4423067.48 0.37 58.0
474214.1 4423067.48 -0.7 72.0
474214.1 4423067.49 -0.17 68.0
474214.02 4423067.51 0.42 48.0
474214.03 4423067.51 -0.11 58.0
474214.050001 4423067.52 -0.65 37.0
474214.08 4423067.51 0.34 58.0
474214.09 4423067.5 -0.73 48.0
474214.09 4423067.51 -0.19 44.0
474214.12 4423067.51 0.24 72.0
474214.130001 4423067.5 -0.83 44.0
474213.970001 4423067.55 0.47 34.0
474213.979999 4423067.53 0.5 41.0
474214.01 4423067.54 0.39 58.0
474214.03 4423067.55 -0.14 51.0
474214.040001 4423067.55 -0.67 44.0
474214.050001 4423067.55 -0.79 65.0
474214.059999 4423067.53 0.31 58.0
474214.069999 4423067.54 -0.22 51.0
474214.069999 4423067.53 -0.76 65.0
474214.11 4423067.54 0.21 55.0
474213.960001 4423067.58 -0.09 65.0
474213.960001 4423067.58 0.44 31.0
474213.989999 4423067.57 0.36 68.0
474214.0 4423067.56 -0.17 58.0
474214.02 4423067.58 -0.7 44.0
474214.02 4423067.58 0.25 51.0
474214.040001 4423067.58 -0.82 55.0
474214.040001 4423067.56 0.28 58.0
474214.09 4423067.56 0.19 65.0
474213.899999 4423067.61 0.48 55.0
474213.92 4423067.59 0.51 58.0
474213.93 4423067.6 0.41 34.0
474213.95 4423067.61 -0.12 65.0
474213.960001 4423067.6 -0.65 55.0
474213.989999 4423067.6 -0.2 41.0
474213.989999 4423067.6 0.34 79.0
474214.0 4423067.6 0.22 75.0
474214.01 4423067.6 -0.73 44.0
474214.02 4423067.6 -0.85 72.0
474214.059999 4423067.61 0.13 55.0
474214.069999 4423067.59 0.16 65.0
474213.92 4423067.63 0.38 34.0
474213.93 4423067.63 -0.15 55.0
474213.970001 4423067.62 0.31 79.0
474213.989999 4423067.63 -0.76 44.0
474214.040001 4423067.63 -0.44 75.0
474213.86 4423067.66 0.42 41.0
474213.880001 4423067.64 0.45 41.0
474213.899999 4423067.65 0.35 34.0
474213.909999 4423067.65 -0.18 65.0
474213.94 4423067.64 0.28 68.0
474213.979999 4423067.66 0.17 51.0
474213.979999 4423067.65 -0.79 44.0
474214.0 4423067.64 0.19 58.0
474213.85 4423067.69 0.39 37.0
474213.890001 4423067.68 0.32 34.0
474213.94 4423067.68 0.25 79.0
474213.960001 4423067.67 -0.82 37.0
474214.140001 4423067.68 -0.7 79.0
474213.84 4423067.72 0.36 37.0
474213.880001 4423067.71 0.29 31.0
474213.899999 4423067.72 0.19 68.0
474213.92 4423067.7 0.22 79.0
474213.94 4423067.7 -0.85 37.0
474213.960001 4423067.72 -0.43 62.0
474214.12 4423067.71 -0.73 79.0
474213.86 4423067.73 0.26 34.0
474214.11 4423067.74 -0.76 79.0
474213.84 4423067.75 0.24 34.0
474213.83 4423067.78 0.21 24.0
474213.87 4423067.8 -0.43 37.0
474213.95 4423067.8 -0.08 62.0
474213.95 4423067.8 0.46 58.0
474213.92 4423067.83 -0.67 86.0
474213.93 4423067.82 0.43 58.0
474213.94 4423067.82 -0.1 51.0
474213.880001 4423067.84 -0.04 58.0
474213.92 4423067.85 0.4 58.0
474213.93 4423067.85 -0.13 68.0
474213.809999 4423067.86 -0.1 51.0
474213.87 4423067.87 -0.07 58.0
474213.899999 4423067.87 0.37 51.0
474213.909999 4423067.88 -0.16 62.0
474213.909999 4423067.87 -0.7 68.0
474213.989999 4423067.88 0.15 75.0
474213.800001 4423067.91 0.29 41.0
474213.85 4423067.91 0.44 37.0
474213.880001 4423067.9 0.34 51.0
474213.890001 4423067.89 -0.73 68.0
474213.890001 4423067.9 -0.19 51.0
474213.979999 4423067.91 -0.42 44.0
474213.77 4423067.92 0.38 37.0
474213.78 4423067.93 0.49 41.0
474213.790001 4423067.93 -0.04 82.0
474213.819999 4423067.92 0.41 37.0
474213.83 4423067.92 -0.13 34.0
474213.87 4423067.92 0.32 51.0
474213.880001 4423067.92 -0.76 65.0
474213.960001 4423067.94 -0.45 44.0
474213.76 4423067.95 0.46 34.0
474213.790001 4423067.97 0.35 37.0
474213.800001 4423067.97 -0.18 58.0
474213.809999 4423067.95 -0.16 68.0
474213.83 4423067.97 0.26 41.0
474213.84 4423067.96 -0.69 99.0
474213.85 4423067.97 -0.81 48.0
474213.75 4423067.98 0.43 41.0
474213.819999 4423067.98 -0.72 75.0
474213.710001 4423068.02 0.37 41.0
474213.78 4423068.0 0.32 37.0
474213.800001 4423068.02 0.2 75.0
474213.800001 4423068.0 -0.74 75.0
474213.809999 4423068.02 -0.87 96.0
474213.809999 4423068.0 0.23 75.0
474213.83 4423068.0 -0.84 103.0
474213.69 4423068.04 0.45 41.0
474213.7 4423068.05 0.34 44.0
474213.77 4423068.03 0.3 37.0
474213.94 4423068.03 -0.13 44.0
474213.960001 4423068.05 -0.68 79.0
474213.68 4423068.07 0.32 24.0
474213.729999 4423068.07 0.24 27.0
474213.87 4423068.07 -0.05 75.0
474213.94 4423068.07 -0.7 79.0
474213.86 4423068.1 -0.08 75.0
474213.93 4423068.1 -0.73 79.0
474213.84 4423068.12 -0.11 86.0
474213.85 4423068.13 0.43 65.0
474213.909999 4423068.13 -0.76 79.0
474213.83 4423068.16 0.4 72.0
474213.83 4423068.15 -0.14 93.0
474213.84 4423068.15 -0.68 44.0
474213.85 4423068.16 0.27 75.0
474213.899999 4423068.16 -0.79 86.0
474213.819999 4423068.18 -0.17 75.0
474213.819999 4423068.19 0.37 72.0
474213.83 4423068.18 -0.71 44.0
474213.84 4423068.19 0.24 75.0
474213.890001 4423068.18 -0.82 86.0
474213.800001 4423068.21 0.34 65.0
474213.809999 4423068.21 -0.74 44.0
474213.87 4423068.21 -0.85 86.0
474213.790001 4423068.24 0.31 79.0
474213.800001 4423068.23 -0.77 44.0
474213.819999 4423068.22 0.21 58.0
474213.77 4423068.27 0.28 72.0
474213.790001 4423068.27 -0.8 37.0
474213.67 4423068.3 0.44 37.0
474213.76 4423068.29 0.25 72.0
474213.77 4423068.29 -0.83 44.0
474213.809999 4423068.28 -0.39 44.0
474213.58 4423068.31 0.39 37.0
474213.649999 4423068.32 0.42 48.0
474213.739999 4423068.32 0.22 72.0
474213.76 4423068.32 -0.85 37.0
474213.78 4423068.33 -0.45 44.0
474213.790001 4423068.31 -0.42 37.0
474213.59 4423068.35 0.36 58.0
474213.649999 4423068.35 -0.4 68.0
474213.739999 4423068.34 -0.88 37.0
474213.569999 4423068.36 0.45 44.0
474213.58 4423068.38 0.33 58.0
474213.68 4423068.37 0.0 58.0
474213.7 4423068.36 -0.37 58.0
474213.550001 4423068.39 0.42 24.0
474213.559999 4423068.4 0.3 37.0
474213.729999 4423068.41 -0.7 62.0
474213.739999 4423068.39 -0.12 34.0
474213.77 4423068.41 -0.67 62.0
474213.51 4423068.42 0.47 37.0
474213.68 4423068.42 -0.43 68.0
474213.69 4423068.42 0.37 62.0
474213.720001 4423068.42 0.4 72.0
474213.729999 4423068.42 -0.15 41.0
474213.7 4423068.43 -0.03 58.0
474213.77 4423068.43 -0.85 44.0
474213.5 4423068.45 0.44 41.0
474213.69 4423068.46 -0.06 75.0
474213.53 4423068.49 -0.04 31.0
474213.58 4423068.49 -0.01 6.0
474213.58 4423068.48 -0.69 3.0
474213.62 4423068.49 0.02 31.0
474213.67 4423068.48 -0.08 86.0
474213.75 4423068.48 -0.72 86.0
474213.77 4423068.48 -0.88 51.0
474213.569999 4423068.51 -0.72 3.0
474213.6 4423068.5 0.4 37.0
474213.62 4423068.52 -0.14 34.0
474213.649999 4423068.51 -0.11 34.0
474213.659999 4423068.52 0.43 79.0
474213.68 4423068.51 0.31 68.0
474213.68 4423068.5 0.46 72.0
474213.739999 4423068.51 -0.75 96.0
474213.489999 4423068.53 -0.1 6.0
474213.569999 4423068.54 -0.74 3.0
474213.6 4423068.54 -0.87 10.0
474213.62 4423068.53 0.25 6.0
474213.67 4423068.53 -0.81 10.0
474213.67 4423068.54 0.28 34.0
474213.720001 4423068.53 -0.78 86.0
474213.569999 4423068.56 -0.36 6.0
474213.569999 4423068.57 -0.07 31.0
474213.62 4423068.57 0.37 48.0
474213.659999 4423068.56 -0.84 10.0
474213.59 4423068.59 0.47 51.0
474213.61 4423068.6 0.34 55.0
474213.640001 4423068.59 -0.67 10.0
474213.470001 4423068.63 -0.32 6.0
474213.52 4423068.63 0.25 6.0
474213.540001 4423068.62 0.42 41.0
474213.569999 4423068.61 0.44 51.0
474213.58 4423068.62 -0.72 3.0
474213.59 4423068.62 0.31 37.0
474213.62 4423068.61 -0.69 3.0
474213.659999 4423068.62 -0.11 62.0
474213.460001 4423068.65 -0.1 6.0
474213.51 4423068.64 0.39 34.0
474213.479999 4423068.69 0.05 6.0
474213.51 4423068.68 0.35 51.0
474213.53 4423068.68 -0.07 6.0
474213.559999 4423068.67 -0.04 6.0
474213.489999 4423068.7 0.33 51.0
474213.43 4423068.73 -0.35 10.0
474213.44 4423068.73 -0.01 6.0
474213.470001 4423068.73 0.01 6.0
474213.479999 4423068.73 0.3 24.0
474213.380001 4423068.76 0.45 41.0
474213.45 4423068.76 -0.74 10.0
474213.37 4423068.78 0.43 34.0
474213.399999 4423068.78 -0.07 6.0
474213.399999 4423068.79 -0.41 10.0
474213.36 4423068.82 0.39 24.0
474213.5 4423068.82 0.36 34.0
474213.309999 4423068.83 0.46 58.0
474213.34 4423068.84 0.36 31.0
474213.37 4423068.84 -0.39 13.0
474213.33 4423068.86 0.34 31.0
474213.34 4423068.88 -0.04 6.0
474213.37 4423068.88 -0.42 13.0
474213.409999 4423068.87 -0.07 31.0
474213.45 4423068.87 -0.04 10.0
474213.489999 4423068.86 0.33 62.0
474213.309999 4423068.9 -0.07 6.0
474213.309999 4423068.89 0.31 31.0
474213.479999 4423068.89 0.3 62.0
474213.489999 4423068.91 0.44 37.0
474213.409999 4423068.92 0.38 37.0
474213.45 4423068.93 0.3 20.0
474213.470001 4423068.92 0.27 44.0
474213.470001 4423068.93 0.41 48.0
474213.28 4423068.95 0.0 6.0
474213.409999 4423068.96 0.36 48.0
474213.28 4423068.98 -0.02 17.0
474213.390001 4423068.99 0.32 55.0
474213.409999 4423068.98 0.47 51.0
474213.27 4423069.02 0.07 6.0
474213.309999 4423069.02 -0.85 3.0
474213.319999 4423069.02 0.38 34.0
474213.35 4423069.01 0.41 72.0
474213.35 4423069.01 -0.82 3.0
474213.380001 4423069.0 0.44 51.0
474213.390001 4423069.02 0.29 37.0
474213.290001 4423069.04 -0.34 17.0
474213.309999 4423069.05 0.35 44.0
474213.34 4423069.04 -0.06 6.0
474213.380001 4423069.04 -0.42 24.0
474213.319999 4423069.06 0.48 68.0
474213.409999 4423069.07 -0.03 6.0
474213.220001 4423069.09 0.4 37.0
474213.26 4423069.1 -0.39 24.0
474213.27 4423069.1 0.43 68.0
474213.290001 4423069.08 0.32 44.0
474213.300001 4423069.08 0.46 58.0
474213.309999 4423069.1 0.04 17.0
474213.2 4423069.13 0.04 13.0
474213.210001 4423069.13 0.37 58.0
474213.2 4423069.16 0.34 58.0
474213.229999 4423069.16 -0.73 44.0
474213.25 4423069.14 -0.71 51.0
474213.26 4423069.16 -0.3 37.0
474213.26 4423069.15 -0.84 68.0
474213.28 4423069.14 -0.81 34.0
474213.300001 4423069.14 0.01 6.0
474213.17 4423069.19 0.52 27.0
474213.239999 4423069.19 -0.33 37.0
474213.27 4423069.19 0.09 37.0
474213.290001 4423069.17 -0.42 58.0
474213.300001 4423069.19 -0.02 51.0
474213.309999 4423069.19 0.37 51.0
474213.309999 4423069.18 0.07 3.0
474213.140001 4423069.2 0.49 31.0
474213.220001 4423069.21 -0.36 37.0
474213.290001 4423069.21 -0.05 41.0
474213.319999 4423069.2 -0.35 13.0
474213.220001 4423069.24 -0.79 31.0
474213.25 4423069.22 0.06 37.0
474213.309999 4423069.24 0.34 62.0
474213.2 4423069.26 -0.29 51.0
474213.239999 4423069.25 0.03 37.0
474213.239999 4423069.27 -0.39 31.0
474213.1 4423069.28 0.4 31.0
474213.18 4423069.29 -0.31 41.0
474213.25 4423069.3 0.0 37.0
474213.17 4423069.32 -0.34 41.0
474213.290001 4423069.31 -0.44 13.0
474213.28 4423069.35 0.1 3.0
474213.210001 4423069.43 -0.26 75.0
474213.28 4423069.42 -0.35 55.0
474213.2 4423069.45 -0.28 68.0
474213.11 4423069.48 0.45 48.0
474213.149999 4423069.49 0.34 34.0
474213.159999 4423069.47 0.37 34.0
474213.18 4423069.48 -0.31 75.0
474213.220001 4423069.49 0.11 58.0
474213.1 4423069.51 0.42 37.0
474213.17 4423069.51 -0.34 68.0
474213.09 4423069.54 0.39 37.0
474213.12 4423069.53 -0.8 34.0
474213.12 4423069.54 -0.26 37.0
474213.149999 4423069.53 -0.37 93.0
474213.01 4423069.57 0.43 24.0
474213.03 4423069.56 0.46 41.0
474213.069999 4423069.56 0.37 37.0
474213.11 4423069.57 -0.29 37.0
474213.140001 4423069.57 -0.4 41.0
474212.989999 4423069.6 0.4 24.0
474213.03 4423069.58 -0.63 37.0
474213.159999 4423069.58 -0.01 6.0
474213.03 4423069.63 -0.26 34.0
474213.040001 4423069.61 -0.23 34.0
474213.11 4423069.62 0.08 65.0
474213.140001 4423069.61 0.11 6.0
474212.989999 4423069.64 0.38 20.0
474213.02 4423069.66 -0.29 34.0
474213.1 4423069.65 0.05 37.0
474213.0 4423069.68 -0.32 34.0
474213.040001 4423069.67 0.13 41.0
474213.08 4423069.68 0.02 48.0
474212.94 4423069.71 -0.25 37.0
474212.960001 4423069.69 -0.22 37.0
474212.989999 4423069.71 -0.35 34.0
474213.02 4423069.7 0.1 41.0
474213.059999 4423069.7 -0.01 37.0
474213.1 4423069.71 0.42 37.0
474212.93 4423069.74 -0.27 37.0
474212.970001 4423069.74 -0.38 34.0
474213.01 4423069.72 0.07 41.0
474213.050001 4423069.74 0.5 34.0
474213.09 4423069.74 0.39 37.0
474213.1 4423069.74 -0.7 24.0
474213.140001 4423069.74 -0.28 37.0
474212.92 4423069.76 -0.3 37.0
474212.95 4423069.77 0.13 37.0
474212.95 4423069.76 -0.41 34.0
474212.970001 4423069.75 0.16 37.0
474212.989999 4423069.75 0.04 41.0
474213.050001 4423069.77 0.48 24.0
474213.08 4423069.76 -0.73 37.0
474213.130001 4423069.77 -0.31 37.0
474212.93 4423069.79 0.1 37.0
474212.979999 4423069.78 0.01 41.0
474213.03 4423069.79 0.45 34.0
474213.069999 4423069.79 -0.76 44.0
474213.08 4423069.78 0.36 31.0
474213.11 4423069.8 -0.34 37.0
474213.130001 4423069.79 -0.43 13.0
474212.880001 4423069.81 0.17 24.0
474212.909999 4423069.81 0.07 37.0
474212.970001 4423069.82 0.52 37.0
474213.01 4423069.82 0.42 34.0
474213.040001 4423069.82 -0.25 58.0
474213.09 4423069.82 -0.37 44.0
474212.86 4423069.83 0.14 24.0
474212.899999 4423069.84 0.04 37.0
474212.960001 4423069.84 0.49 37.0
474213.0 4423069.85 0.39 34.0
474213.03 4423069.84 -0.27 58.0
474213.059999 4423069.85 0.15 58.0
474212.85 4423069.86 0.11 24.0
474212.890001 4423069.87 0.02 37.0
474212.93 4423069.86 0.47 37.0
474213.050001 4423069.88 0.12 58.0
474213.08 4423069.86 -0.39 37.0
474212.880001 4423069.9 0.52 20.0
474212.93 4423069.89 -0.64 37.0
474212.93 4423069.9 0.44 37.0
474212.960001 4423069.89 -0.21 48.0
474212.86 4423069.93 0.49 20.0
474212.909999 4423069.92 0.41 37.0
474212.92 4423069.92 -0.66 37.0
474212.95 4423069.92 -0.24 37.0
474212.85 4423069.95 0.46 20.0
474212.960001 4423069.95 -0.39 75.0
474213.0 4423069.95 0.03 68.0
474212.77 4423069.99 0.5 37.0
474212.790001 4423069.97 0.53 27.0
474212.84 4423069.99 0.43 20.0
474212.86 4423069.99 -0.22 51.0
474212.95 4423069.98 -0.42 41.0
474212.95 4423069.98 0.12 55.0
474212.989999 4423069.98 0.0 41.0
474212.76 4423070.02 0.47 31.0
474212.83 4423070.0 -0.66 34.0
474212.85 4423070.02 -0.25 51.0
474212.880001 4423070.02 0.18 34.0
474212.909999 4423070.0 -0.33 44.0
474212.94 4423070.01 0.09 37.0
474212.819999 4423070.03 -0.69 37.0
474212.84 4423070.04 -0.28 41.0
474212.890001 4423070.03 -0.36 44.0
474212.92 4423070.04 0.06 37.0
474212.75 4423070.05 0.44 31.0
474212.800001 4423070.06 -0.19 37.0
474212.819999 4423070.07 -0.31 41.0
474212.87 4423070.05 0.15 34.0
474212.880001 4423070.05 -0.38 44.0
474212.909999 4423070.07 0.03 37.0
474212.76 4423070.1 -0.25 37.0
474212.78 4423070.08 -0.22 37.0
474212.800001 4423070.1 0.2 37.0
474212.800001 4423070.09 -0.33 41.0
474212.85 4423070.08 0.12 34.0
474212.86 4423070.08 -0.41 37.0
474212.95 4423070.1 -0.66 44.0
474212.75 4423070.13 -0.28 37.0
474212.78 4423070.12 0.17 37.0
474212.790001 4423070.12 -0.36 41.0
474212.819999 4423070.13 0.06 34.0
474212.84 4423070.11 0.09 34.0
474212.87 4423070.12 0.52 34.0
474212.92 4423070.12 0.4 37.0
474212.93 4423070.12 -0.68 44.0
474212.77 4423070.15 0.14 37.0
474212.809999 4423070.16 0.04 34.0
474212.84 4423070.16 0.46 34.0
474212.85 4423070.14 0.49 34.0
474212.909999 4423070.14 -0.71 44.0
474212.7 4423070.18 0.2 24.0
474212.720001 4423070.18 -0.33 37.0
474212.75 4423070.17 0.11 37.0
474212.890001 4423070.18 -0.2 34.0
474212.7 4423070.21 0.17 20.0
474212.75 4423070.21 0.09 37.0
474212.77 4423070.21 0.52 37.0
474212.84 4423070.2 -0.65 41.0
474212.84 4423070.21 0.43 34.0
474212.87 4423070.2 -0.23 41.0
474212.92 4423070.21 -0.36 44.0
474212.69 4423070.24 0.14 20.0
474212.720001 4423070.22 0.06 37.0
474212.77 4423070.24 0.49 37.0
474212.819999 4423070.22 -0.68 51.0
474212.86 4423070.23 -0.26 51.0
474212.899999 4423070.23 -0.39 44.0
474212.67 4423070.26 0.11 20.0
474212.739999 4423070.26 0.46 37.0
474212.84 4423070.25 -0.29 58.0
474212.899999 4423070.27 -0.41 37.0
474212.659999 4423070.29 0.08 20.0
474212.7 4423070.29 0.53 20.0
474212.739999 4423070.29 0.43 37.0
474212.739999 4423070.29 -0.65 37.0
474212.790001 4423070.28 -0.2 37.0
474212.83 4423070.28 -0.32 68.0
474212.86 4423070.28 0.1 51.0
474212.68 4423070.31 0.5 20.0
474212.729999 4423070.31 -0.67 37.0
474212.77 4423070.3 -0.23 37.0
474212.809999 4423070.31 0.2 37.0
474212.809999 4423070.31 -0.35 68.0
474212.85 4423070.31 0.07 58.0
474212.880001 4423070.3 -0.44 37.0
474212.659999 4423070.33 0.47 20.0
474212.659999 4423070.35 -0.62 41.0
474212.7 4423070.33 -0.17 34.0
474212.76 4423070.33 -0.26 37.0
474212.800001 4423070.34 0.17 37.0
474212.800001 4423070.34 -0.37 68.0
474212.83 4423070.34 0.04 51.0
474212.649999 4423070.38 -0.65 41.0
474212.67 4423070.37 -0.67 41.0
474212.69 4423070.36 -0.2 34.0
474212.720001 4423070.38 0.22 34.0
474212.729999 4423070.38 -0.31 37.0
474212.75 4423070.36 -0.28 31.0
474212.78 4423070.36 -0.4 58.0
474212.78 4423070.37 0.14 37.0
474212.59 4423070.39 0.5 37.0
474212.62 4423070.4 -0.15 37.0
474212.659999 4423070.41 -0.25 34.0
474212.68 4423070.39 -0.23 34.0
474212.710001 4423070.41 0.19 34.0
474212.720001 4423070.41 -0.34 37.0
474212.720001 4423070.4 -0.88 41.0
474212.77 4423070.39 0.11 37.0
474212.569999 4423070.42 0.47 37.0
474212.6 4423070.43 -0.18 37.0
474212.7 4423070.42 -0.91 41.0
474212.76 4423070.42 0.08 37.0
474212.59 4423070.46 -0.21 37.0
474212.640001 4423070.44 -0.29 34.0
474212.68 4423070.46 0.14 34.0
474212.69 4423070.45 -0.94 41.0
474212.69 4423070.44 0.16 34.0
474212.7 4423070.44 -0.37 37.0
474212.729999 4423070.45 0.05 37.0
474212.58 4423070.49 -0.23 37.0
474212.630001 4423070.49 -0.88 37.0
474212.630001 4423070.47 -0.31 34.0
474212.640001 4423070.48 0.22 37.0
474212.659999 4423070.49 0.11 34.0
474212.69 4423070.47 -0.4 37.0
474212.77 4423070.48 -0.64 37.0
474212.569999 4423070.51 -0.26 37.0
474212.59 4423070.52 0.16 37.0
474212.6 4423070.52 -0.37 34.0
474212.61 4423070.5 0.19 37.0
474212.62 4423070.5 -0.34 34.0
474212.649999 4423070.52 0.08 34.0
474212.720001 4423070.51 0.53 34.0
474212.76 4423070.51 -0.67 31.0
474212.550001 4423070.54 0.24 20.0
474212.69 4423070.53 0.5 34.0
474212.720001 4423070.53 -0.16 58.0
474212.540001 4423070.57 0.21 20.0
474212.59 4423070.55 -0.4 34.0
474212.59 4423070.56 0.14 37.0
474212.6 4423070.55 -0.94 44.0
474212.67 4423070.55 0.47 34.0
474212.710001 4423070.56 -0.19 58.0
474212.51 4423070.58 0.18 24.0
474212.550001 4423070.6 0.08 37.0
474212.569999 4423070.58 0.11 37.0
474212.659999 4423070.58 -0.64 58.0
474212.68 4423070.59 -0.86 44.0
474212.69 4423070.59 -0.22 58.0
474212.5 4423070.61 0.15 24.0
474212.58 4423070.62 0.5 48.0
474212.630001 4423070.63 -0.16 37.0
474212.68 4423070.61 -0.25 58.0
474212.7 4423070.62 -0.89 51.0
474212.479999 4423070.64 0.12 24.0
474212.569999 4423070.65 0.47 48.0
474212.67 4423070.64 -0.28 58.0
474212.62 4423070.66 -0.18 37.0
474212.640001 4423070.66 -0.85 34.0
474212.649999 4423070.66 -0.31 51.0
474212.720001 4423070.66 -0.91 37.0
474212.479999 4423070.67 0.09 20.0
474212.569999 4423070.68 -0.94 31.0
474212.659999 4423070.68 0.23 37.0
474212.68 4423070.68 -0.94 37.0
474212.479999 4423070.7 0.5 24.0
474212.540001 4423070.7 -0.13 34.0
474212.59 4423070.71 -0.24 37.0
474212.61 4423070.69 -0.21 37.0
474212.61 4423070.69 -0.63 27.0
474212.640001 4423070.69 -0.33 58.0
474212.640001 4423070.7 0.2 37.0
474212.53 4423070.73 -0.16 34.0
474212.569999 4423070.74 -0.27 37.0
474212.62 4423070.72 -0.36 58.0
474212.62 4423070.74 -0.93 41.0
474212.630001 4423070.73 0.18 37.0
474212.67 4423070.72 -0.86 41.0
474212.409999 4423070.77 0.51 41.0
474212.52 4423070.75 -0.19 34.0
474212.559999 4423070.77 0.24 34.0
474212.559999 4423070.76 -0.84 58.0
474212.559999 4423070.77 -0.3 37.0
474212.59 4423070.77 -0.42 58.0
474212.6 4423070.75 -0.39 58.0
474212.61 4423070.75 0.15 37.0
474212.45 4423070.78 -0.13 37.0
474212.5 4423070.78 -0.21 34.0
474212.540001 4423070.79 -0.33 37.0
474212.6 4423070.78 0.12 37.0
474212.659999 4423070.78 -0.85 44.0
474212.43 4423070.81 -0.16 37.0
474212.489999 4423070.81 -0.24 34.0
474212.52 4423070.82 0.18 34.0
474212.540001 4423070.8 0.21 34.0
474212.58 4423070.81 0.09 37.0
474212.58 4423070.82 -0.83 68.0
474212.640001 4423070.81 -0.91 58.0
474212.649999 4423070.81 -0.87 34.0
474212.399999 4423070.85 -0.21 37.0
474212.42 4423070.84 -0.19 37.0
474212.460001 4423070.83 0.27 58.0
474212.460001 4423070.85 -0.3 34.0
474212.470001 4423070.83 -0.27 34.0
474212.489999 4423070.83 -0.81 44.0
474212.51 4423070.85 0.15 34.0
474212.51 4423070.85 -0.81 55.0
474212.51 4423070.84 -0.39 37.0
474212.52 4423070.85 -0.89 210.0
474212.540001 4423070.83 -0.36 37.0
474212.43 4423070.88 0.21 48.0
474212.44 4423070.88 -0.33 34.0
474212.45 4423070.86 0.24 48.0
474212.460001 4423070.88 -0.16 17.0
474212.470001 4423070.86 -0.84 37.0
474212.5 4423070.88 0.12 34.0
474212.6 4423070.86 -0.41 55.0
474212.61 4423070.86 -0.86 65.0
474212.399999 4423070.9 -0.24 37.0
474212.399999 4423070.9 0.29 20.0
474212.460001 4423070.89 -0.86 44.0
474212.53 4423070.89 -0.4 31.0
474212.37 4423070.92 -0.17 13.0
474212.42 4423070.91 0.17 37.0
474212.43 4423070.91 -0.36 34.0
474212.470001 4423070.92 -0.19 27.0
474212.51 4423070.92 0.51 44.0
474212.37 4423070.95 0.23 20.0
474212.390001 4423070.96 -0.3 27.0
474212.399999 4423070.94 0.26 13.0
474212.399999 4423070.96 -0.83 31.0
474212.409999 4423070.94 -0.27 27.0
474212.43 4423070.94 -0.81 31.0
474212.43 4423070.96 0.15 27.0
474212.43 4423070.95 -0.39 34.0
474212.5 4423070.95 -0.22 41.0
474212.61 4423070.95 -0.86 75.0
474212.34 4423070.97 0.31 17.0
474212.34 4423070.97 -0.22 20.0
474212.37 4423070.98 -0.33 27.0
474212.37 4423070.99 0.2 20.0
474212.42 4423070.98 0.12 27.0
474212.52 4423070.99 -0.25 37.0
474212.33 4423071.0 -0.25 20.0
474212.35 4423071.01 0.17 20.0
474212.36 4423071.01 -0.36 27.0
474212.37 4423071.01 -0.89 31.0
474212.399999 4423071.0 -0.86 31.0
474212.409999 4423071.0 0.51 48.0
474212.489999 4423071.01 -0.11 31.0
474212.33 4423071.03 0.14 20.0
474212.34 4423071.03 -0.39 27.0
474212.36 4423071.03 -0.92 31.0
474212.52 4423071.02 -0.27 27.0
474212.569999 4423071.03 -0.92 48.0
474212.470001 4423071.07 -0.17 31.0
474212.489999 4423071.05 -0.14 31.0
474212.53 4423071.05 -0.41 44.0
474212.550001 4423071.06 -0.95 48.0
474212.390001 4423071.1 -0.11 34.0
474212.460001 4423071.1 -0.2 31.0
474212.37 4423071.12 -0.14 34.0
474212.44 4423071.13 -0.23 31.0
474212.36 4423071.15 -0.17 34.0
474212.409999 4423071.14 0.28 24.0
474212.42 4423071.15 -0.26 31.0
474212.309999 4423071.16 -0.09 27.0
474212.35 4423071.18 -0.2 24.0
474212.390001 4423071.17 0.25 24.0
474212.399999 4423071.17 -0.29 31.0
474212.479999 4423071.16 -0.94 55.0
474212.300001 4423071.19 -0.12 27.0
474212.33 4423071.2 0.31 27.0
474212.34 4423071.21 -0.23 24.0
474212.390001 4423071.2 0.22 24.0
474212.390001 4423071.2 -0.32 31.0
474212.42 4423071.2 -0.89 34.0
474212.26 4423071.22 -0.37 41.0
474212.290001 4423071.22 -0.15 27.0
474212.319999 4423071.24 0.28 27.0
474212.33 4423071.24 -0.26 24.0
474212.37 4423071.23 0.19 24.0
474212.390001 4423071.24 -0.35 31.0
474212.2 4423071.26 0.19 48.0
474212.220001 4423071.26 -0.35 51.0
474212.229999 4423071.25 0.33 20.0
474212.229999 4423071.25 -0.2 37.0
474212.28 4423071.25 -0.17 27.0
474212.35 4423071.25 0.16 24.0
474212.36 4423071.25 -0.38 31.0
474212.399999 4423071.26 -0.09 58.0
474212.28 4423071.27 -0.32 34.0
474212.28 4423071.28 0.22 27.0
474212.319999 4423071.27 -0.29 24.0
474212.319999 4423071.28 0.25 27.0
474212.35 4423071.28 0.13 24.0
474212.36 4423071.29 -0.41 31.0
474212.37 4423071.32 -0.15 68.0
474212.390001 4423071.3 -0.12 68.0
474212.36 4423071.35 -0.18 58.0
474212.35 4423071.38 -0.21 68.0
474212.36 4423071.38 -0.75 44.0
474212.319999 4423071.4 -0.24 51.0
474212.36 4423071.46 -0.81 17.0
474212.300001 4423071.49 -0.33 34.0
474212.319999 4423071.48 -0.3 34.0
474212.28 4423071.52 -0.36 34.0
474212.28 4423071.56 -0.39 34.0
474212.27 4423071.59 -0.42 34.0
474212.210001 4423071.7 -0.13 34.0
474211.989999 4423071.75 0.38 134.0
474212.0 4423071.75 -0.17 162.0
474212.01 4423071.75 -0.3 224.0
474212.040001 4423071.75 -0.14 155.0
474212.130001 4423071.75 -0.08 31.0
474211.970001 4423071.77 0.35 134.0
474211.979999 4423071.77 -0.2 168.0
474211.989999 4423071.78 -0.11 48.0
474212.01 4423071.79 0.21 172.0
474212.01 4423071.78 -0.33 155.0
474212.02 4423071.78 0.29 58.0
474212.03 4423071.77 0.24 144.0
474212.08 4423071.77 -0.27 255.0
474212.12 4423071.78 -0.41 206.0
474212.12 4423071.77 0.3 65.0
474212.17 4423071.78 -0.21 41.0
474211.93 4423071.81 0.38 75.0
474211.960001 4423071.8 -0.23 137.0
474211.970001 4423071.8 -0.14 48.0
474212.01 4423071.81 0.26 58.0
474212.050001 4423071.81 -0.26 55.0
474212.069999 4423071.82 -0.08 151.0
474212.1 4423071.81 -0.41 34.0
474212.1 4423071.81 -0.06 158.0
474211.92 4423071.84 0.36 72.0
474211.95 4423071.83 -0.26 89.0
474212.0 4423071.84 0.23 58.0
474212.03 4423071.83 -0.3 44.0
474212.11 4423071.83 -0.05 51.0
474212.11 4423071.83 0.32 99.0
474212.12 4423071.84 -0.23 148.0
474212.149999 4423071.83 -0.2 255.0
474212.159999 4423071.83 -0.38 75.0
474211.899999 4423071.87 0.32 62.0
474211.979999 4423071.87 0.2 58.0
474212.01 4423071.86 -0.33 44.0
474212.1 4423071.87 -0.08 65.0
474211.890001 4423071.9 0.3 72.0
474212.0 4423071.89 -0.35 44.0
474212.0 4423071.88 -0.17 75.0
474212.08 4423071.89 -0.11 65.0
474211.87 4423071.92 0.26 72.0
474211.909999 4423071.92 -0.26 27.0
474211.979999 4423071.92 -0.38 44.0
474211.86 4423071.96 0.23 62.0
474211.899999 4423071.95 -0.29 27.0
474211.979999 4423071.95 -0.23 41.0
474212.02 4423071.94 -0.2 82.0
474212.08 4423071.94 -0.14 55.0
474211.880001 4423071.98 -0.32 27.0
474211.989999 4423071.97 -0.03 65.0
474212.040001 4423071.98 0.37 93.0
474211.979999 4423072.0 -0.06 75.0
474212.02 4423072.01 0.33 93.0
474211.86 4423072.04 -0.21 134.0
474211.92 4423072.03 0.39 144.0
474211.960001 4423072.03 -0.09 75.0
474212.0 4423072.04 0.3 93.0
474211.87 4423072.07 -0.01 34.0
474211.909999 4423072.07 0.41 44.0
474211.960001 4423072.07 -0.12 89.0
474211.85 4423072.1 -0.04 41.0
474211.899999 4423072.1 0.38 48.0
474211.970001 4423072.1 0.24 93.0
474211.989999 4423072.08 0.27 93.0
474211.84 4423072.12 -0.06 34.0
474211.880001 4423072.11 -0.24 137.0
474211.800001 4423072.14 0.37 124.0
474211.84 4423072.13 0.4 134.0
474211.880001 4423072.13 0.35 41.0
474211.960001 4423072.13 -0.35 24.0
474211.960001 4423072.13 0.22 79.0
474211.800001 4423072.18 -0.12 41.0
474211.83 4423072.16 -0.09 34.0
474211.85 4423072.18 0.29 41.0
474211.87 4423072.17 0.32 34.0
474211.890001 4423072.18 -0.24 44.0
474211.909999 4423072.16 -0.21 44.0
474211.94 4423072.16 -0.38 27.0
474211.729999 4423072.21 0.42 134.0
474211.78 4423072.21 0.44 113.0
474211.87 4423072.21 -0.27 44.0
474211.710001 4423072.23 0.39 144.0
474211.76 4423072.22 0.37 72.0
474211.77 4423072.23 -0.26 96.0
474211.790001 4423072.22 0.4 79.0
474211.800001 4423072.22 -0.15 41.0
474211.83 4423072.22 0.26 41.0
474211.85 4423072.23 -0.3 44.0
474211.739999 4423072.25 0.35 72.0
474211.720001 4423072.28 0.31 72.0
474211.819999 4423072.29 -0.36 44.0
474211.84 4423072.27 -0.33 44.0
474211.710001 4423072.31 0.28 62.0
474211.75 4423072.3 -0.24 27.0
474211.729999 4423072.33 -0.27 27.0
474211.77 4423072.34 0.03 13.0
474211.84 4423072.35 -0.21 75.0
474211.84 4423072.34 0.01 65.0
474211.86 4423072.33 -0.18 96.0
474211.649999 4423072.36 0.37 72.0
474211.729999 4423072.36 -0.3 27.0
474211.739999 4423072.36 0.01 20.0
474211.83 4423072.36 -0.02 75.0
474211.649999 4423072.4 0.03 17.0
474211.710001 4423072.39 -0.33 27.0
474211.729999 4423072.39 -0.02 20.0
474211.729999 4423072.39 0.4 127.0
474211.77 4423072.39 0.43 137.0
474211.809999 4423072.39 -0.05 75.0
474211.67 4423072.42 0.45 20.0
474211.720001 4423072.42 -0.05 20.0
474211.790001 4423072.42 -0.08 75.0
474211.630001 4423072.46 -0.03 17.0
474211.68 4423072.46 -0.11 20.0
474211.7 4423072.44 -0.08 20.0
474211.710001 4423072.46 -0.21 151.0
474211.710001 4423072.44 0.02 41.0
474211.78 4423072.45 -0.11 75.0
474211.68 4423072.47 0.42 17.0
474211.69 4423072.47 -0.01 34.0
474211.69 4423072.48 -0.24 96.0
474211.640001 4423072.51 0.4 124.0
474211.649999 4423072.51 0.36 17.0
474211.659999 4423072.49 0.39 17.0
474211.67 4423072.49 -0.14 20.0
474211.739999 4423072.5 0.39 34.0
474211.75 4423072.51 -0.73 17.0
474211.790001 4423072.51 -0.14 110.0
474211.790001 4423072.51 0.42 79.0
474211.569999 4423072.53 0.42 27.0
474211.62 4423072.53 0.37 124.0
474211.62 4423072.53 0.33 17.0
474211.649999 4423072.54 -0.2 13.0
474211.659999 4423072.52 -0.17 13.0
474211.7 4423072.52 0.43 96.0
474211.559999 4423072.56 0.39 20.0
474211.61 4423072.56 0.3 17.0
474211.630001 4423072.56 -0.76 27.0
474211.720001 4423072.55 -0.04 72.0
474211.569999 4423072.6 0.29 144.0
474211.59 4423072.58 -0.23 131.0
474211.62 4423072.59 -0.78 27.0
474211.659999 4423072.6 -0.9 68.0
474211.569999 4423072.62 0.41 124.0
474211.6 4423072.62 -0.26 131.0
474211.61 4423072.62 -0.81 27.0
474211.61 4423072.62 0.44 93.0
474211.67 4423072.62 0.05 179.0
474211.75 4423072.62 -0.07 137.0
474211.550001 4423072.64 -0.02 127.0
474211.58 4423072.65 -0.29 162.0
474211.720001 4423072.64 0.46 151.0
474211.569999 4423072.66 0.38 134.0
474211.58 4423072.66 -0.16 120.0
474211.67 4423072.67 0.02 168.0
474211.7 4423072.68 -0.93 113.0
474211.729999 4423072.7 -0.12 65.0
474211.61 4423072.73 -0.05 37.0
474211.640001 4423072.73 -0.85 75.0
474211.7 4423072.72 -0.95 68.0
474211.489999 4423072.76 0.07 31.0
474211.58 4423072.74 0.45 20.0
474211.62 4423072.74 0.35 37.0
474211.62 4423072.74 -0.19 34.0
474211.720001 4423072.74 -0.15 58.0
474211.58 4423072.78 -0.11 27.0
474211.59 4423072.79 0.42 13.0
474211.62 4423072.77 -0.08 27.0
474211.630001 4423072.78 -0.21 24.0
474211.7 4423072.77 -0.98 37.0
474211.460001 4423072.81 0.01 27.0
474211.58 4423072.81 -0.14 27.0
474211.59 4423072.82 0.39 13.0
474211.61 4423072.81 0.29 27.0
474211.62 4423072.81 -0.24 24.0
474211.640001 4423072.8 0.32 17.0
474211.69 4423072.8 -1.01 44.0
474211.69 4423072.82 -0.88 31.0
474211.710001 4423072.81 -0.77 27.0
474211.559999 4423072.84 0.36 20.0
474211.569999 4423072.84 -0.17 27.0
474211.6 4423072.84 -0.27 24.0
474211.67 4423072.84 -0.91 31.0
474211.540001 4423072.86 0.33 20.0
474211.550001 4423072.86 -0.2 27.0
474211.6 4423072.86 -0.97 68.0
474211.62 4423072.87 -0.83 31.0
474211.640001 4423072.85 -0.94 31.0
474211.649999 4423072.85 -0.27 27.0
474211.7 4423072.85 -0.8 44.0
474211.53 4423072.89 0.3 20.0
474211.540001 4423072.89 -0.23 27.0
474211.59 4423072.89 -0.99 65.0
474211.640001 4423072.88 -0.3 27.0
474211.6 4423072.9 -0.86 31.0
474211.390001 4423072.91 0.43 72.0
474211.51 4423072.93 -0.82 24.0
474211.53 4423072.91 -0.79 24.0
474211.58 4423072.91 -1.02 65.0
474211.58 4423072.93 0.05 34.0
474211.59 4423072.93 -0.89 31.0
474211.59 4423072.91 0.08 34.0
474211.5 4423072.96 -0.85 24.0
474211.53 4423072.96 -0.95 31.0
474211.559999 4423072.96 0.02 34.0
474211.569999 4423072.95 -0.92 31.0
474211.51 4423072.97 -0.98 62.0
474211.61 4423072.98 -0.64 34.0
474211.470001 4423073.01 -0.91 24.0
474211.489999 4423073.0 -0.88 24.0
474211.489999 4423073.0 -1.01 37.0
474211.5 4423072.99 0.09 27.0
474211.53 4423073.01 -0.04 24.0
474211.559999 4423073.0 -0.01 24.0
474211.6 4423073.01 -0.67 34.0
474211.45 4423073.03 -0.94 31.0
474211.5 4423073.02 0.06 27.0
474211.51 4423073.03 -0.07 24.0
474211.58 4423073.04 -0.16 31.0
474211.59 4423073.04 -0.7 34.0
474211.380001 4423073.07 0.07 24.0
474211.409999 4423073.05 0.1 34.0
474211.409999 4423073.07 -0.99 37.0
474211.45 4423073.06 0.0 27.0
474211.489999 4423073.06 0.44 37.0
474211.489999 4423073.06 0.03 27.0
474211.58 4423073.07 -0.73 34.0
474211.43 4423073.08 -0.03 37.0
474211.52 4423073.08 -0.1 24.0
474211.53 4423073.08 -0.63 31.0
474211.59 4423073.08 -0.88 24.0
474211.37 4423073.1 0.04 24.0
474211.390001 4423073.1 -1.02 37.0
474211.409999 4423073.1 -0.06 37.0
474211.45 4423073.11 0.38 37.0
474211.460001 4423073.11 -0.16 34.0
474211.470001 4423073.11 -0.69 62.0
474211.489999 4423073.1 0.41 27.0
474211.5 4423073.1 -0.13 24.0
474211.5 4423073.12 -0.82 75.0
474211.52 4423073.1 -0.79 34.0
474211.52 4423073.11 -0.66 31.0
474211.540001 4423073.12 -0.25 31.0
474211.550001 4423073.1 -0.22 31.0
474211.559999 4423073.1 -0.76 31.0
474211.569999 4423073.11 -0.91 37.0
474211.33 4423073.15 -0.02 24.0
474211.36 4423073.13 0.01 24.0
474211.399999 4423073.13 -0.09 48.0
474211.42 4423073.14 -0.62 41.0
474211.44 4423073.13 0.35 37.0
474211.45 4423073.13 -0.18 41.0
474211.460001 4423073.14 -0.72 37.0
474211.489999 4423073.15 -0.84 41.0
474211.559999 4423073.13 -0.93 44.0
474211.33 4423073.18 -0.05 24.0
474211.36 4423073.18 0.39 24.0
474211.36 4423073.18 -0.14 48.0
474211.37 4423073.18 -0.68 34.0
474211.380001 4423073.16 0.42 20.0
474211.380001 4423073.16 -0.12 58.0
474211.390001 4423073.16 -0.65 51.0
474211.43 4423073.16 0.33 37.0
474211.43 4423073.16 -0.21 41.0
474211.45 4423073.16 -0.75 44.0
474211.479999 4423073.18 -0.87 51.0
474211.53 4423073.18 -0.99 44.0
474211.540001 4423073.16 -0.96 44.0
474211.42 4423073.19 -0.24 41.0
474211.43 4423073.19 -0.78 44.0
474211.460001 4423073.2 -0.9 58.0
474211.290001 4423073.23 0.43 37.0
474211.300001 4423073.23 -0.1 24.0
474211.319999 4423073.21 -0.08 24.0
474211.319999 4423073.21 -0.61 44.0
474211.35 4423073.21 -0.17 68.0
474211.35 4423073.23 -0.74 34.0
474211.35 4423073.21 0.36 24.0
474211.37 4423073.21 -0.71 51.0
474211.42 4423073.21 -0.8 37.0
474211.44 4423073.23 -0.93 58.0
474211.52 4423073.21 -1.02 44.0
474211.28 4423073.26 0.4 37.0
474211.290001 4423073.26 -0.13 20.0
474211.300001 4423073.26 -0.66 37.0
474211.34 4423073.24 -0.2 68.0
474211.34 4423073.26 -0.77 41.0
474211.35 4423073.25 0.33 20.0
474211.390001 4423073.26 -0.86 37.0
474211.399999 4423073.24 -0.83 44.0
474211.42 4423073.26 0.11 34.0
474211.43 4423073.25 -0.96 58.0
474211.26 4423073.28 0.37 41.0
474211.28 4423073.29 -0.16 20.0
474211.33 4423073.29 -0.79 37.0
474211.37 4423073.29 -0.89 37.0
474211.399999 4423073.29 0.08 34.0
474211.409999 4423073.28 -0.99 55.0
474211.25 4423073.31 -0.19 24.0
474211.309999 4423073.31 -0.82 48.0
474211.390001 4423073.32 0.05 34.0
474211.399999 4423073.31 -1.02 65.0
474211.300001 4423073.34 -0.85 37.0
474211.34 4423073.34 -0.95 37.0
474211.37 4423073.33 -0.92 31.0
474211.27 4423073.36 -0.88 31.0
474211.319999 4423073.35 0.12 37.0
474211.33 4423073.37 -0.98 37.0
474211.36 4423073.37 -0.01 34.0
474211.390001 4423073.35 0.03 34.0
474211.42 4423073.37 -0.65 58.0
474211.43 4423073.35 -0.63 68.0
474211.26 4423073.39 -0.91 37.0
474211.300001 4423073.4 0.06 37.0
474211.309999 4423073.39 -1.01 37.0
474211.319999 4423073.38 0.09 37.0
474211.35 4423073.39 -0.04 34.0
474211.399999 4423073.4 -0.68 51.0
474211.239999 4423073.42 0.13 20.0
474211.25 4423073.41 -0.94 31.0
474211.28 4423073.42 0.03 37.0
474211.300001 4423073.42 -1.04 37.0
474211.34 4423073.43 -0.06 34.0
474211.380001 4423073.42 -0.71 58.0
474211.399999 4423073.41 -0.14 37.0
474211.220001 4423073.45 0.1 20.0
474211.229999 4423073.44 -0.97 31.0
474211.26 4423073.44 0.0 37.0
474211.319999 4423073.45 -0.09 41.0
474211.34 4423073.45 -0.63 37.0
474211.36 4423073.45 -0.74 58.0
474211.17 4423073.47 0.16 31.0
474211.210001 4423073.48 0.07 20.0
474211.220001 4423073.47 -1.0 37.0
474211.25 4423073.47 -0.03 37.0
474211.290001 4423073.47 0.42 37.0
474211.309999 4423073.48 -0.12 34.0
474211.309999 4423073.47 -0.66 51.0
474211.35 4423073.48 -0.77 68.0
474211.37 4423073.46 -0.2 37.0
474211.130001 4423073.51 0.11 37.0
474211.149999 4423073.49 0.14 37.0
474211.2 4423073.5 0.04 20.0
474211.229999 4423073.5 -0.06 37.0
474211.27 4423073.49 0.39 37.0
474211.28 4423073.49 -0.15 34.0
474211.290001 4423073.5 -0.68 44.0
474211.34 4423073.5 -0.8 58.0
474211.12 4423073.54 0.08 37.0
474211.18 4423073.53 0.01 20.0
474211.220001 4423073.52 -0.62 41.0
474211.220001 4423073.52 -0.09 37.0
474211.26 4423073.52 0.36 48.0
474211.27 4423073.53 -0.18 41.0
474211.28 4423073.53 -0.71 44.0
474211.319999 4423073.53 -0.83 58.0
474211.380001 4423073.54 -0.94 31.0
474211.399999 4423073.52 -0.91 37.0
474211.11 4423073.57 0.05 37.0
474211.149999 4423073.57 -0.05 20.0
474211.17 4423073.55 -0.02 20.0
474211.2 4423073.56 0.42 20.0
474211.2 4423073.57 -0.68 41.0
474211.210001 4423073.55 -0.11 37.0
474211.210001 4423073.55 -0.65 41.0
474211.27 4423073.55 -0.74 62.0
474211.309999 4423073.56 -0.86 58.0
474211.37 4423073.56 -0.97 31.0
474211.130001 4423073.59 -0.61 44.0
474211.19 4423073.58 0.39 20.0
474211.2 4423073.58 -0.14 37.0
474211.25 4423073.58 -0.77 51.0
474211.290001 4423073.58 -0.89 51.0
474211.35 4423073.58 -1.0 31.0
474211.08 4423073.62 -0.01 37.0
474211.1 4423073.6 0.02 37.0
474211.11 4423073.62 0.42 37.0
474211.12 4423073.62 -0.64 44.0
474211.130001 4423073.6 -0.08 24.0
474211.17 4423073.62 -0.74 34.0
474211.18 4423073.6 -0.71 41.0
474211.25 4423073.61 -0.8 37.0
474211.27 4423073.61 -0.91 51.0
474211.34 4423073.62 -1.03 31.0
474211.069999 4423073.65 -0.04 37.0
474211.09 4423073.65 0.4 37.0
474211.11 4423073.64 -0.67 44.0
474211.130001 4423073.63 -0.11 20.0
474211.159999 4423073.65 -0.76 37.0
474211.210001 4423073.65 -0.86 62.0
474211.220001 4423073.63 -0.83 51.0
474211.26 4423073.63 -0.94 55.0
474211.26 4423073.64 0.13 41.0
474211.11 4423073.66 -0.13 20.0
474211.130001 4423073.68 -0.66 34.0
474211.149999 4423073.68 -0.79 37.0
474211.19 4423073.68 -0.89 44.0
474211.2 4423073.67 -0.77 31.0
474211.239999 4423073.66 0.1 34.0
474211.25 4423073.66 -0.97 55.0
474211.130001 4423073.7 -0.82 31.0
474211.140001 4423073.7 0.42 34.0
474211.149999 4423073.7 -0.12 31.0
474211.18 4423073.7 -0.92 44.0
474211.229999 4423073.7 0.07 41.0
474211.239999 4423073.69 -1.0 55.0
