# .PCD v.7 - Point Cloud Data file format
VERSION .7
FIELDS x y z i
SIZE 4 4 4 4
TYPE F F F F
COUNT 1 1 1 1
WIDTH 1442
HEIGHT 1
VIEWPOINT 0 0 0 1 0 0 0
POINTS 1442
DATA ascii
474194.58 4423176.75 -0.72 117.0
474194.56 4423176.77 -0.75 140.0
474194.680001 4423176.77 -0.77 181.0
474194.72 4423176.77 -0.74 177.0
474194.529999 4423176.82 -0.91 255.0
474194.56 4423176.82 -0.66 194.0
474194.590001 4423176.8 -0.63 177.0
474194.55 4423176.84 -0.68 194.0
474194.539999 4423176.87 -0.71 177.0
474194.609999 4423176.87 -0.75 255.0
474194.65 4423176.87 -0.72 255.0
474194.65 4423176.86 -0.9 255.0
474194.520001 4423176.89 -0.74 171.0
474194.440001 4423176.92 -0.65 211.0
474194.510001 4423176.92 -0.77 187.0
474194.39 4423176.95 -0.78 164.0
474194.41 4423176.93 -0.76 83.0
474194.42 4423176.94 -0.68 164.0
474194.5 4423176.94 -0.79 187.0
474194.539999 4423176.95 -0.65 208.0
474194.56 4423176.94 -0.62 167.0
474194.56 4423176.95 -0.69 255.0
474194.41 4423176.97 -0.7 144.0
474194.520001 4423176.97 -0.67 208.0
474194.57 4423176.96 -0.87 255.0
474194.4 4423177.0 -0.73 147.0
474194.49 4423176.99 -0.22 114.0
474194.510001 4423177.0 -0.7 187.0
474194.340001 4423177.03 -0.86 234.0
474194.359999 4423177.01 -0.84 234.0
474194.38 4423177.02 -0.76 157.0
474194.430001 4423177.03 -0.84 140.0
474194.48 4423177.03 -0.81 124.0
474194.5 4423177.02 -0.73 167.0
474194.359999 4423177.04 -0.78 137.0
474194.510001 4423177.08 -0.63 117.0
474194.529999 4423177.07 -0.61 124.0
474194.350001 4423177.1 -0.63 184.0
474194.289999 4423177.11 -0.82 47.0
474194.33 4423177.11 -0.66 177.0
474194.350001 4423177.13 -0.84 53.0
474194.48 4423177.12 -0.69 117.0
474194.5 4423177.11 -0.66 124.0
474194.3 4423177.16 -0.71 171.0
474194.32 4423177.14 -0.68 177.0
474194.47 4423177.15 -0.71 124.0
474194.33 4423177.18 -0.69 255.0
474194.369999 4423177.17 -0.68 255.0
474194.42 4423177.18 -0.76 174.0
474194.449999 4423177.17 -0.74 117.0
474194.270001 4423177.2 -0.65 201.0
474194.289999 4423177.19 -0.74 154.0
474194.22 4423177.24 -0.8 248.0
474194.32 4423177.22 -0.63 124.0
474194.279999 4423177.26 -0.68 140.0
474194.32 4423177.26 -0.73 57.0
474194.190001 4423177.28 -0.85 255.0
474194.24 4423177.29 -0.73 134.0
474194.260001 4423177.28 -0.7 140.0
474194.33 4423177.28 -0.9 120.0
474194.22 4423177.31 -0.76 181.0
474194.340001 4423177.3 -0.77 238.0
474194.23 4423177.33 -0.38 124.0
474194.25 4423177.34 -0.64 130.0
474194.270001 4423177.33 -0.62 130.0
474194.17 4423177.35 -0.92 154.0
474194.180001 4423177.37 -0.92 255.0
474194.22 4423177.35 -0.79 134.0
474194.23 4423177.37 -0.67 130.0
474194.13 4423177.38 -0.66 255.0
474194.199999 4423177.38 -0.81 134.0
474194.22 4423177.39 -0.7 130.0
474194.13 4423177.41 -0.89 221.0
474194.190001 4423177.4 -0.84 124.0
474194.199999 4423177.41 -0.72 130.0
474194.23 4423177.41 -0.78 255.0
474194.3 4423177.41 -0.88 255.0
474194.180001 4423177.43 -0.87 127.0
474194.190001 4423177.44 -0.75 124.0
474194.190001 4423177.44 -0.38 124.0
474194.14 4423177.47 -0.89 255.0
474194.15 4423177.47 -0.92 144.0
474194.180001 4423177.47 -0.78 147.0
474194.17 4423177.49 -0.8 140.0
474194.23 4423177.48 -0.63 151.0
474194.07 4423177.52 -0.62 124.0
474194.16 4423177.52 -0.83 161.0
474194.199999 4423177.53 -0.68 164.0
474194.22 4423177.51 -0.65 164.0
474194.05 4423177.54 -0.65 154.0
474194.180001 4423177.55 -0.71 164.0
474194.010001 4423177.58 -0.7 154.0
474194.029999 4423177.56 -0.67 154.0
474194.16 4423177.57 -0.37 83.0
474194.17 4423177.57 -0.73 151.0
474194.209999 4423177.58 -0.35 57.0
474193.99 4423177.62 -0.9 255.0
474194.199999 4423177.61 -0.61 117.0
474193.97 4423177.65 -0.93 251.0
474194.020001 4423177.66 -0.64 154.0
474194.029999 4423177.64 -0.62 154.0
474194.180001 4423177.66 -0.67 107.0
474194.199999 4423177.64 -0.64 107.0
474194.0 4423177.68 -0.67 187.0
474194.13 4423177.68 -0.36 93.0
474194.16 4423177.67 -0.69 117.0
474193.97 4423177.69 -0.7 117.0
474194.109999 4423177.7 -0.38 114.0
474194.119999 4423177.71 -0.75 107.0
474194.14 4423177.69 -0.72 107.0
474194.17 4423177.69 -0.33 70.0
474193.97 4423177.74 -0.34 77.0
474194.0 4423177.74 -0.61 134.0
474193.940001 4423177.76 -0.37 147.0
474194.010001 4423177.75 -0.32 73.0
474193.91 4423177.79 -0.32 97.0
474193.940001 4423177.78 -0.29 87.0
474193.940001 4423177.78 -0.78 127.0
474193.99 4423177.78 -0.64 124.0
474193.97 4423177.8 -0.67 134.0
474194.090001 4423177.81 -0.88 255.0
474193.89 4423177.84 -0.37 104.0
474193.92 4423177.82 -0.72 87.0
474193.949999 4423177.83 -0.8 255.0
474193.959999 4423177.82 -0.69 124.0
474193.92 4423177.86 -0.26 117.0
474193.97 4423177.87 -0.6 177.0
474193.940001 4423177.89 -0.86 255.0
474193.949999 4423177.92 -0.65 201.0
474193.97 4423177.9 -0.62 184.0
474194.039999 4423177.91 -0.34 97.0
474193.859999 4423177.94 -0.73 234.0
474193.930001 4423177.94 -0.68 194.0
474194.010001 4423177.93 -0.36 107.0
474194.010001 4423177.97 -0.89 187.0
474193.869999 4423177.99 -0.75 137.0
474193.89 4423178.0 -0.36 77.0
474193.930001 4423178.0 -0.34 83.0
474193.940001 4423177.98 -0.81 255.0
474193.97 4423177.98 -0.77 184.0
474193.98 4423177.98 -0.93 255.0
474193.940001 4423178.02 -0.61 208.0
474193.959999 4423178.02 -0.83 255.0
474193.97 4423178.01 -0.78 255.0
474193.75 4423178.05 -0.61 114.0
474193.930001 4423178.05 -0.64 167.0
474193.91 4423178.07 -0.66 167.0
474193.74 4423178.09 -0.64 114.0
474193.89 4423178.09 -0.69 187.0
474193.699999 4423178.13 -0.69 114.0
474193.72 4423178.11 -0.66 104.0
474193.789999 4423178.11 -0.89 177.0
474193.840001 4423178.12 -0.38 83.0
474193.859999 4423178.11 -0.35 53.0
474193.88 4423178.11 -0.72 167.0
474193.9 4423178.11 -0.33 53.0
474193.690001 4423178.16 -0.72 120.0
474193.8 4423178.15 -0.92 177.0
474193.859999 4423178.14 -0.74 167.0
474193.9 4423178.15 -0.6 107.0
474193.67 4423178.18 -0.74 114.0
474193.72 4423178.17 -0.6 184.0
474193.779999 4423178.18 -0.94 194.0
474193.859999 4423178.17 -0.77 151.0
474193.65 4423178.19 -0.35 114.0
474193.66 4423178.21 -0.77 120.0
474193.690001 4423178.2 -0.33 100.0
474193.72 4423178.21 -0.63 184.0
474193.82 4423178.21 -0.82 151.0
474193.840001 4423178.19 -0.8 167.0
474193.64 4423178.23 -0.8 120.0
474193.699999 4423178.23 -0.65 184.0
474193.81 4423178.23 -0.85 187.0
474193.850001 4423178.23 -0.22 40.0
474193.63 4423178.26 -0.82 104.0
474193.680001 4423178.25 -0.68 184.0
474193.770001 4423178.25 -0.3 47.0
474193.8 4423178.26 -0.88 167.0
474193.840001 4423178.25 -0.73 60.0
474193.609999 4423178.28 -0.85 104.0
474193.67 4423178.28 -0.71 164.0
474193.690001 4423178.28 -0.59 137.0
474193.74 4423178.27 -0.25 26.0
474193.779999 4423178.28 -0.9 167.0
474193.82 4423178.28 -0.28 40.0
474193.83 4423178.27 -0.76 60.0
474193.600001 4423178.31 -0.88 114.0
474193.65 4423178.3 -0.74 157.0
474193.760001 4423178.31 -0.93 187.0
474193.58 4423178.33 -0.9 120.0
474193.609999 4423178.33 -0.38 134.0
474193.64 4423178.32 -0.76 171.0
474193.64 4423178.33 -0.91 255.0
474193.66 4423178.34 -0.36 70.0
474193.67 4423178.34 -0.64 147.0
474193.690001 4423178.32 -0.62 147.0
474193.690001 4423178.33 -0.33 63.0
474193.789999 4423178.34 -0.81 100.0
474193.600001 4423178.37 -0.82 191.0
474193.619999 4423178.35 -0.79 164.0
474193.65 4423178.35 -0.67 147.0
474193.64 4423178.38 -0.7 147.0
474193.760001 4423178.39 -0.87 107.0
474193.590001 4423178.4 -0.85 184.0
474193.619999 4423178.4 -0.72 137.0
474193.67 4423178.4 -0.58 177.0
474193.58 4423178.43 -0.38 87.0
474193.600001 4423178.45 -0.78 127.0
474193.609999 4423178.43 -0.75 127.0
474193.619999 4423178.44 -0.36 57.0
474193.64 4423178.45 -0.63 164.0
474193.65 4423178.43 -0.6 177.0
474193.65 4423178.43 -0.33 53.0
474193.63 4423178.46 -0.26 70.0
474193.63 4423178.47 -0.66 164.0
474193.67 4423178.46 -0.24 50.0
474193.520001 4423178.5 -0.37 140.0
474193.539999 4423178.48 -0.34 137.0
474193.58 4423178.48 -0.81 151.0
474193.58 4423178.48 -0.32 140.0
474193.609999 4423178.5 -0.68 177.0
474193.609999 4423178.48 -0.29 124.0
474193.64 4423178.49 -0.17 53.0
474193.449999 4423178.52 -0.62 211.0
474193.539999 4423178.51 -0.25 100.0
474193.56 4423178.51 -0.82 255.0
474193.58 4423178.51 -0.23 83.0
474193.590001 4423178.52 -0.71 177.0
474193.63 4423178.52 -0.2 90.0
474193.66 4423178.51 -0.57 120.0
474193.440001 4423178.55 -0.65 164.0
474193.529999 4423178.53 -0.28 90.0
474193.58 4423178.55 -0.74 177.0
474193.64 4423178.53 -0.59 120.0
474193.65 4423178.55 -0.57 164.0
474193.510001 4423178.56 -0.86 255.0
474193.529999 4423178.57 -0.3 114.0
474193.57 4423178.57 -0.76 164.0
474193.619999 4423178.58 -0.65 120.0
474193.63 4423178.56 -0.62 130.0
474193.64 4423178.57 -0.6 164.0
474193.430001 4423178.6 -0.59 120.0
474193.520001 4423178.6 -0.33 114.0
474193.600001 4423178.6 -0.67 120.0
474193.619999 4423178.59 -0.62 164.0
474193.619999 4423178.59 -0.17 90.0
474193.430001 4423178.63 -0.62 114.0
474193.5 4423178.62 -0.36 124.0
474193.57 4423178.62 -0.19 194.0
474193.58 4423178.62 -0.7 120.0
474193.609999 4423178.62 -0.65 164.0
474193.41 4423178.65 -0.65 114.0
474193.56 4423178.64 -0.22 194.0
474193.57 4423178.66 -0.7 151.0
474193.57 4423178.64 -0.73 130.0
474193.600001 4423178.64 -0.68 151.0
474193.39 4423178.68 -0.67 114.0
474193.539999 4423178.67 -0.25 194.0
474193.56 4423178.68 -0.73 140.0
474193.56 4423178.67 -0.75 120.0
474193.590001 4423178.67 -0.58 63.0
474193.350001 4423178.71 -0.23 198.0
474193.369999 4423178.7 -0.7 104.0
474193.369999 4423178.69 -0.21 211.0
474193.42 4423178.71 -0.58 171.0
474193.529999 4423178.69 -0.27 177.0
474193.539999 4423178.71 -0.76 151.0
474193.539999 4423178.71 -0.61 114.0
474193.539999 4423178.69 -0.78 114.0
474193.56 4423178.71 -0.63 63.0
474193.56 4423178.69 -0.59 114.0
474193.58 4423178.69 -0.6 60.0
474193.340001 4423178.74 -0.26 171.0
474193.4 4423178.74 -0.61 164.0
474193.5 4423178.74 -0.32 194.0
474193.510001 4423178.73 -0.16 151.0
474193.510001 4423178.73 -0.83 130.0
474193.520001 4423178.72 -0.3 194.0
474193.529999 4423178.73 -0.64 114.0
474193.529999 4423178.72 -0.81 120.0
474193.55 4423178.74 -0.65 63.0
474193.32 4423178.76 -0.29 184.0
474193.350001 4423178.75 -0.76 104.0
474193.48 4423178.76 -0.35 177.0
474193.5 4423178.76 -0.86 120.0
474193.510001 4423178.76 -0.18 164.0
474193.520001 4423178.76 -0.81 167.0
474193.520001 4423178.76 -0.67 114.0
474193.539999 4423178.76 -0.68 60.0
474193.3 4423178.78 -0.31 198.0
474193.33 4423178.78 -0.78 114.0
474193.340001 4423178.79 -0.2 181.0
474193.369999 4423178.79 -0.66 171.0
474193.39 4423178.77 -0.64 184.0
474193.440001 4423178.79 -0.89 181.0
474193.49 4423178.78 -0.89 120.0
474193.49 4423178.78 -0.21 164.0
474193.5 4423178.78 -0.84 167.0
474193.510001 4423178.79 -0.57 100.0
474193.510001 4423178.79 -0.7 114.0
474193.520001 4423178.78 -0.71 63.0
474193.279999 4423178.81 -0.34 164.0
474193.31 4423178.8 -0.81 120.0
474193.359999 4423178.81 -0.69 184.0
474193.48 4423178.8 -0.91 114.0
474193.48 4423178.8 -0.24 164.0
474193.49 4423178.81 -0.72 114.0
474193.49 4423178.81 -0.87 167.0
474193.510001 4423178.81 -0.74 67.0
474193.279999 4423178.84 -0.37 184.0
474193.3 4423178.82 -0.84 114.0
474193.33 4423178.82 -0.22 167.0
474193.340001 4423178.83 -0.72 184.0
474193.369999 4423178.84 -0.6 114.0
474193.39 4423178.82 -0.57 114.0
474193.440001 4423178.84 -0.29 151.0
474193.459999 4423178.82 -0.26 164.0
474193.459999 4423178.82 -0.94 114.0
474193.47 4423178.84 -0.79 57.0
474193.48 4423178.83 -0.75 104.0
474193.49 4423178.82 -0.76 63.0
474193.279999 4423178.85 -0.86 114.0
474193.3 4423178.87 -0.28 167.0
474193.32 4423178.85 -0.25 154.0
474193.33 4423178.87 -0.74 157.0
474193.359999 4423178.87 -0.63 114.0
474193.430001 4423178.87 -0.32 151.0
474193.459999 4423178.85 -0.78 114.0
474193.47 4423178.87 -0.81 63.0
474193.270001 4423178.88 -0.89 90.0
474193.279999 4423178.89 -0.3 167.0
474193.31 4423178.89 -0.77 164.0
474193.42 4423178.89 -0.34 164.0
474193.449999 4423178.89 -0.84 60.0
474193.449999 4423178.88 -0.8 104.0
474193.270001 4423178.92 -0.33 167.0
474193.3 4423178.91 -0.8 164.0
474193.32 4423178.91 -0.19 184.0
474193.33 4423178.91 -0.68 114.0
474193.350001 4423178.9 -0.65 124.0
474193.42 4423178.92 -0.86 104.0
474193.430001 4423178.9 -0.83 104.0
474193.440001 4423178.92 -0.87 63.0
474193.260001 4423178.95 -0.36 137.0
474193.279999 4423178.93 -0.82 164.0
474193.31 4423178.94 -0.22 177.0
474193.31 4423178.94 -0.71 124.0
474193.340001 4423178.94 -0.61 164.0
474193.359999 4423178.93 -0.59 181.0
474193.369999 4423178.95 -0.56 177.0
474193.4 4423178.95 -0.88 114.0
474193.42 4423178.93 -0.9 63.0
474193.270001 4423178.96 -0.85 164.0
474193.289999 4423178.96 -0.24 191.0
474193.3 4423178.97 -0.73 114.0
474193.350001 4423178.97 -0.59 194.0
474193.39 4423178.97 -0.91 104.0
474193.41 4423178.97 -0.92 60.0
474193.25 4423178.99 -0.88 184.0
474193.279999 4423178.99 -0.76 110.0
474193.279999 4423178.99 -0.27 171.0
474193.32 4423179.0 -0.67 164.0
474193.340001 4423179.0 -0.62 177.0
474193.340001 4423178.98 -0.64 181.0
474193.38 4423179.0 -0.94 114.0
474193.23 4423179.01 -0.91 184.0
474193.260001 4423179.01 -0.29 171.0
474193.270001 4423179.01 -0.79 100.0
474193.31 4423179.01 -0.16 114.0
474193.31 4423179.02 -0.7 181.0
474193.15 4423179.04 -0.58 198.0
474193.22 4423179.03 -0.93 171.0
474193.25 4423179.03 -0.81 100.0
474193.25 4423179.04 -0.32 191.0
474193.289999 4423179.04 -0.72 181.0
474193.3 4423179.04 -0.18 114.0
474193.32 4423179.03 -0.65 177.0
474193.38 4423179.03 -0.83 100.0
474193.13 4423179.06 -0.61 164.0
474193.22 4423179.08 -0.87 110.0
474193.23 4423179.06 -0.35 171.0
474193.24 4423179.06 -0.84 110.0
474193.260001 4423179.08 -0.78 164.0
474193.260001 4423179.08 -0.24 114.0
474193.270001 4423179.06 -0.21 124.0
474193.279999 4423179.07 -0.75 181.0
474193.289999 4423179.08 -0.6 114.0
474193.289999 4423179.07 -0.7 164.0
474193.3 4423179.08 -0.56 151.0
474193.31 4423179.06 -0.57 114.0
474193.32 4423179.06 -0.67 177.0
474193.12 4423179.09 -0.64 147.0
474193.279999 4423179.1 -0.58 151.0
474193.279999 4423179.1 -0.63 120.0
474193.279999 4423179.09 -0.73 164.0
474193.1 4423179.11 -0.66 144.0
474193.190001 4423179.13 -0.92 114.0
474193.209999 4423179.12 -0.9 114.0
474193.209999 4423179.12 -0.35 124.0
474193.23 4423179.13 -0.83 181.0
474193.24 4423179.13 -0.29 100.0
474193.25 4423179.11 -0.27 114.0
474193.25 4423179.11 -0.8 164.0
474193.260001 4423179.12 -0.75 164.0
474193.260001 4423179.13 -0.32 117.0
474193.260001 4423179.12 -0.65 120.0
474193.270001 4423179.13 -0.61 164.0
474193.279999 4423179.11 -0.29 77.0
474193.32 4423179.12 -0.94 117.0
474193.13 4423179.14 -0.57 167.0
474193.22 4423179.15 -0.32 110.0
474193.23 4423179.16 -0.18 164.0
474193.25 4423179.14 -0.78 164.0
474193.25 4423179.14 -0.64 151.0
474193.260001 4423179.15 -0.68 130.0
474193.12 4423179.17 -0.6 137.0
474193.199999 4423179.17 -0.34 114.0
474193.209999 4423179.18 -0.2 164.0
474193.24 4423179.18 -0.71 130.0
474193.24 4423179.17 -0.81 177.0
474193.25 4423179.18 -0.67 164.0
474193.279999 4423179.18 -0.2 83.0
474193.1 4423179.2 -0.63 167.0
474193.15 4423179.21 -0.3 171.0
474193.16 4423179.19 -0.28 171.0
474193.190001 4423179.21 -0.23 177.0
474193.199999 4423179.19 -0.25 157.0
474193.209999 4423179.21 -0.76 130.0
474193.22 4423179.19 -0.73 114.0
474193.22 4423179.19 -0.83 177.0
474193.24 4423179.2 -0.56 47.0
474193.24 4423179.2 -0.69 164.0
474193.25 4423179.19 -0.22 157.0
474193.06 4423179.22 -0.18 171.0
474193.08 4423179.22 -0.66 154.0
474193.180001 4423179.23 -0.26 194.0
474193.209999 4423179.22 -0.86 184.0
474193.209999 4423179.22 -0.72 151.0
474193.24 4423179.23 -0.59 50.0
474193.04 4423179.25 -0.21 198.0
474193.07 4423179.24 -0.68 181.0
474193.11 4423179.25 -0.56 164.0
474193.13 4423179.26 -0.35 187.0
474193.14 4423179.24 -0.33 187.0
474193.16 4423179.25 -0.29 177.0
474193.17 4423179.25 -0.16 104.0
474193.190001 4423179.24 -0.79 134.0
474193.190001 4423179.24 -0.75 151.0
474193.22 4423179.25 -0.14 104.0
474193.23 4423179.25 -0.62 50.0
474193.03 4423179.28 -0.24 171.0
474193.05 4423179.27 -0.71 167.0
474193.1 4423179.27 -0.88 255.0
474193.1 4423179.28 -0.59 171.0
474193.16 4423179.27 -0.19 114.0
474193.16 4423179.28 -0.31 177.0
474193.17 4423179.29 -0.8 140.0
474193.180001 4423179.27 -0.77 151.0
474193.209999 4423179.27 -0.64 50.0
474193.01 4423179.31 -0.27 198.0
474193.04 4423179.3 -0.73 154.0
474193.08 4423179.31 -0.62 164.0
474193.1 4423179.3 -0.89 157.0
474193.11 4423179.31 -0.56 147.0
474193.14 4423179.3 -0.34 194.0
474193.15 4423179.31 -0.87 130.0
474193.15 4423179.31 -0.83 151.0
474193.16 4423179.3 -0.22 114.0
474193.199999 4423179.3 -0.67 57.0
474193.0 4423179.33 -0.29 198.0
474193.03 4423179.33 -0.18 114.0
474193.07 4423179.33 -0.64 157.0
474193.09 4423179.32 -0.93 255.0
474193.09 4423179.33 -0.59 164.0
474193.14 4423179.33 -0.24 114.0
474193.17 4423179.34 -0.56 100.0
474193.17 4423179.34 -0.73 50.0
474193.190001 4423179.33 -0.7 50.0
474192.98 4423179.35 -0.32 198.0
474193.02 4423179.35 -0.2 120.0
474193.03 4423179.37 -0.7 164.0
474193.05 4423179.37 -0.16 107.0
474193.06 4423179.36 -0.67 164.0
474193.08 4423179.36 -0.61 147.0
474193.12 4423179.37 -0.29 130.0
474193.14 4423179.35 -0.27 120.0
474193.16 4423179.36 -0.75 57.0
474193.17 4423179.37 -0.59 110.0
474192.97 4423179.38 -0.35 171.0
474193.01 4423179.39 -0.23 120.0
474193.02 4423179.38 -0.18 117.0
474193.06 4423179.38 -0.64 147.0
474193.07 4423179.39 -0.59 110.0
474193.09 4423179.38 -0.56 100.0
474193.14 4423179.38 -0.78 50.0
474192.99 4423179.41 -0.26 120.0
474193.01 4423179.41 -0.21 107.0
474193.02 4423179.4 -0.73 157.0
474193.03 4423179.42 -0.69 137.0
474193.05 4423179.42 -0.61 100.0
474193.06 4423179.41 -0.67 147.0
474193.11 4423179.4 -0.32 120.0
474193.13 4423179.41 -0.81 50.0
474193.14 4423179.42 -0.16 50.0
474192.98 4423179.44 -0.28 114.0
474192.99 4423179.43 -0.24 107.0
474193.03 4423179.44 -0.15 171.0
474193.04 4423179.44 -0.64 114.0
474193.11 4423179.43 -0.83 50.0
474193.12 4423179.44 -0.19 50.0
474192.96 4423179.46 -0.31 114.0
474192.97 4423179.45 -0.26 107.0
474193.0 4423179.47 -0.75 164.0
474193.01 4423179.47 -0.59 187.0
474193.02 4423179.45 -0.72 147.0
474193.02 4423179.45 -0.93 255.0
474193.02 4423179.47 -0.17 157.0
474193.03 4423179.46 -0.57 187.0
474193.1 4423179.46 -0.86 47.0
474193.11 4423179.46 -0.22 50.0
474193.13 4423179.45 -0.67 110.0
474192.94 4423179.48 -0.34 104.0
474192.95 4423179.5 -0.32 100.0
474192.97 4423179.48 -0.29 107.0
474192.99 4423179.49 -0.77 147.0
474192.99 4423179.49 -0.62 187.0
474192.99 4423179.5 -0.72 137.0
474193.0 4423179.49 -0.2 164.0
474193.02 4423179.49 -0.55 154.0
474193.07 4423179.5 -0.91 50.0
474193.08 4423179.48 -0.89 47.0
474193.1 4423179.49 -0.24 47.0
474192.93 4423179.52 -0.34 100.0
474192.97 4423179.52 -0.16 147.0
474192.98 4423179.52 -0.65 187.0
474192.98 4423179.52 -0.8 147.0
474192.99 4423179.51 -0.23 171.0
474193.01 4423179.52 -0.58 164.0
474193.05 4423179.52 -0.94 50.0
474193.09 4423179.51 -0.75 110.0
474192.96 4423179.54 -0.67 171.0
474192.96 4423179.55 -0.19 147.0
474192.96 4423179.53 -0.83 147.0
474192.97 4423179.54 -0.26 184.0
474192.99 4423179.54 -0.61 177.0
474193.07 4423179.53 -0.3 47.0
474193.08 4423179.53 -0.78 100.0
474192.84 4423179.58 -0.56 184.0
474192.93 4423179.58 -0.88 147.0
474192.93 4423179.58 -0.24 147.0
474192.93 4423179.58 -0.73 187.0
474192.94 4423179.56 -0.22 147.0
474192.94 4423179.57 -0.17 124.0
474192.94 4423179.56 -0.86 147.0
474192.95 4423179.57 -0.7 187.0
474192.95 4423179.56 -0.28 171.0
474192.95 4423179.58 -0.66 164.0
474192.97 4423179.56 -0.63 177.0
474193.05 4423179.58 -0.83 110.0
474193.06 4423179.56 -0.81 110.0
474193.06 4423179.56 -0.32 50.0
474192.82 4423179.6 -0.59 164.0
474192.92 4423179.6 -0.75 187.0
474192.93 4423179.6 -0.2 114.0
474192.95 4423179.59 -0.31 157.0
474192.97 4423179.6 -0.56 120.0
474193.04 4423179.6 -0.86 117.0
474192.8 4423179.63 -0.62 164.0
474192.89 4423179.63 -0.3 137.0
474192.9 4423179.63 -0.78 171.0
474192.9 4423179.63 -0.94 137.0
474192.91 4423179.62 -0.22 124.0
474192.91 4423179.61 -0.27 147.0
474192.92 4423179.61 -0.91 147.0
474192.95 4423179.61 -0.69 164.0
474192.96 4423179.62 -0.59 114.0
474193.02 4423179.63 -0.89 110.0
474192.79 4423179.66 -0.64 161.0
474192.88 4423179.65 -0.32 137.0
474192.89 4423179.66 -0.81 171.0
474192.89 4423179.64 -0.25 114.0
474192.9 4423179.65 -0.16 164.0
474192.92 4423179.66 -0.74 177.0
474192.92 4423179.65 -0.86 137.0
474192.93 4423179.64 -0.72 177.0
474192.93 4423179.66 -0.64 120.0
474192.94 4423179.64 -0.61 120.0
474193.01 4423179.65 -0.91 110.0
474192.77 4423179.68 -0.67 164.0
474192.82 4423179.68 -0.55 114.0
474192.88 4423179.68 -0.83 187.0
474192.88 4423179.67 -0.28 114.0
474192.89 4423179.67 -0.18 164.0
474192.89 4423179.68 -0.77 164.0
474192.91 4423179.67 -0.89 127.0
474192.99 4423179.67 -0.94 110.0
474192.76 4423179.71 -0.7 147.0
474192.81 4423179.71 -0.58 114.0
474192.82 4423179.71 -0.56 107.0
474192.87 4423179.69 -0.3 100.0
474192.88 4423179.7 -0.21 164.0
474192.88 4423179.7 -0.8 154.0
474192.89 4423179.69 -0.91 137.0
474192.9 4423179.71 -0.7 120.0
474192.92 4423179.69 -0.67 130.0
474192.74 4423179.73 -0.72 147.0
474192.79 4423179.73 -0.61 104.0
474192.8 4423179.73 -0.58 117.0
474192.85 4423179.72 -0.33 100.0
474192.86 4423179.72 -0.24 164.0
474192.87 4423179.73 -0.82 147.0
474192.88 4423179.73 -0.94 127.0
474192.94 4423179.73 -0.54 47.0
474192.73 4423179.76 -0.75 137.0
474192.77 4423179.75 -0.63 104.0
474192.79 4423179.75 -0.61 107.0
474192.84 4423179.74 -0.26 164.0
474192.85 4423179.75 -0.85 164.0
474192.87 4423179.75 -0.75 104.0
474192.89 4423179.74 -0.72 114.0
474192.92 4423179.75 -0.56 50.0
474192.71 4423179.78 -0.78 157.0
474192.75 4423179.77 -0.16 171.0
474192.76 4423179.77 -0.15 167.0
474192.76 4423179.79 -0.66 114.0
474192.77 4423179.77 -0.64 107.0
474192.81 4423179.79 -0.32 164.0
474192.83 4423179.77 -0.29 164.0
474192.84 4423179.78 -0.88 177.0
474192.85 4423179.77 -0.78 114.0
474192.88 4423179.79 -0.13 120.0
474192.91 4423179.78 -0.59 47.0
474192.69 4423179.81 -0.81 147.0
474192.73 4423179.8 -0.19 171.0
474192.74 4423179.81 -0.69 114.0
474192.75 4423179.8 -0.18 167.0
474192.77 4423179.8 -0.66 100.0
474192.8 4423179.8 -0.55 147.0
474192.82 4423179.8 -0.91 177.0
474192.84 4423179.8 -0.8 120.0
474192.86 4423179.81 -0.16 120.0
474192.89 4423179.8 -0.61 50.0
474192.7 4423179.84 -0.24 174.0
474192.72 4423179.84 -0.23 167.0
474192.72 4423179.82 -0.22 184.0
474192.73 4423179.82 -0.2 147.0
474192.73 4423179.84 -0.72 100.0
474192.73 4423179.83 -0.72 104.0
474192.75 4423179.82 -0.69 100.0
474192.76 4423179.84 -0.54 164.0
474192.79 4423179.83 -0.58 171.0
474192.82 4423179.82 -0.83 104.0
474192.82 4423179.83 -0.93 177.0
474192.84 4423179.83 -0.19 120.0
474192.86 4423179.84 -0.67 50.0
474192.88 4423179.83 -0.64 47.0
474192.66 4423179.86 -0.86 157.0
474192.69 4423179.87 -0.27 144.0
474192.7 4423179.86 -0.26 167.0
474192.71 4423179.86 -0.74 120.0
474192.71 4423179.87 -0.75 107.0
474192.75 4423179.86 -0.57 147.0
474192.78 4423179.86 -0.61 171.0
474192.79 4423179.87 -0.88 114.0
474192.81 4423179.85 -0.86 114.0
474192.83 4423179.86 -0.21 120.0
474192.84 4423179.87 -0.7 50.0
474192.64 4423179.89 -0.89 137.0
474192.67 4423179.89 -0.3 147.0
474192.69 4423179.89 -0.28 147.0
474192.7 4423179.89 -0.77 120.0
474192.7 4423179.89 -0.77 104.0
474192.73 4423179.89 -0.16 104.0
474192.73 4423179.88 -0.59 154.0
474192.76 4423179.88 -0.63 171.0
474192.81 4423179.88 -0.24 120.0
474192.83 4423179.89 -0.72 50.0
474192.65 4423179.91 -0.82 97.0
474192.65 4423179.92 -0.74 107.0
474192.65 4423179.91 -0.32 157.0
474192.68 4423179.91 -0.31 147.0
474192.68 4423179.91 -0.16 124.0
474192.68 4423179.91 -0.8 104.0
474192.7 4423179.92 -0.65 164.0
474192.72 4423179.92 -0.19 114.0
474192.72 4423179.9 -0.62 177.0
474192.73 4423179.91 -0.55 110.0
474192.75 4423179.91 -0.66 164.0
474192.78 4423179.92 -0.29 120.0
474192.8 4423179.91 -0.26 114.0
474192.82 4423179.91 -0.75 50.0
474192.85 4423179.92 -0.58 124.0
474192.86 4423179.9 -0.56 124.0
474192.61 4423179.94 -0.16 120.0
474192.61 4423179.94 -0.65 87.0
474192.62 4423179.93 -0.77 120.0
474192.62 4423179.93 -0.27 104.0
474192.67 4423179.94 -0.24 97.0
474192.67 4423179.94 -0.19 114.0
474192.7 4423179.93 -0.22 114.0
474192.72 4423179.93 -0.57 110.0
474192.74 4423179.94 -0.69 157.0
474192.76 4423179.94 -0.32 120.0
474192.81 4423179.94 -0.78 50.0
474192.83 4423179.94 -0.12 47.0
474192.83 4423179.94 -0.61 137.0
474192.6 4423179.97 -0.68 90.0
474192.6 4423179.97 -0.19 120.0
474192.61 4423179.96 -0.3 104.0
474192.62 4423179.96 -0.79 127.0
474192.65 4423179.96 -0.21 114.0
474192.67 4423179.96 -0.63 90.0
474192.69 4423179.95 -0.67 164.0
474192.7 4423179.95 -0.6 114.0
474192.72 4423179.96 -0.72 184.0
474192.78 4423179.95 -0.8 47.0
474192.8 4423179.96 -0.15 47.0
474192.61 4423180.0 -0.32 114.0
474192.62 4423180.0 -0.27 114.0
474192.64 4423179.98 -0.24 114.0
474192.65 4423179.99 -0.73 154.0
474192.68 4423179.98 -0.7 164.0
474192.68 4423179.99 -0.56 164.0
474192.76 4423180.0 -0.86 57.0
474192.77 4423179.98 -0.83 47.0
474192.77 4423180.0 -0.21 47.0
474192.78 4423180.0 -0.69 117.0
474192.79 4423179.98 -0.18 43.0
474192.8 4423179.99 -0.66 137.0
474192.6 4423180.02 -0.29 104.0
474192.6 4423180.02 -0.21 114.0
474192.61 4423180.02 -0.71 60.0
474192.67 4423180.02 -0.58 164.0
474192.73 4423180.01 -0.88 50.0
474192.58 4423180.04 -0.66 255.0
474192.6 4423180.05 -0.32 104.0
474192.62 4423180.05 -0.15 140.0
474192.66 4423180.04 -0.61 164.0
474192.75 4423180.05 -0.26 47.0
474192.76 4423180.03 -0.23 47.0
474192.77 4423180.03 -0.72 124.0
474192.61 4423180.07 -0.18 130.0
474192.62 4423180.07 -0.74 83.0
474192.65 4423180.07 -0.64 181.0
474192.73 4423180.07 -0.28 50.0
474192.75 4423180.08 -0.77 124.0
474192.76 4423180.06 -0.74 124.0
474192.56 4423180.1 -0.72 181.0
474192.59 4423180.1 -0.21 140.0
474192.72 4423180.09 -0.31 50.0
474192.73 4423180.1 -0.8 124.0
474192.54 4423180.13 -0.55 167.0
474192.58 4423180.13 -0.23 130.0
474192.65 4423180.13 -0.53 114.0
474192.72 4423180.12 -0.82 124.0
474192.52 4423180.14 -0.58 167.0
474192.57 4423180.14 -0.26 130.0
474192.58 4423180.15 -0.75 157.0
474192.63 4423180.14 -0.56 120.0
474192.51 4423180.17 -0.61 167.0
474192.53 4423180.18 -0.8 211.0
474192.55 4423180.16 -0.77 211.0
474192.55 4423180.16 -0.29 130.0
474192.56 4423180.17 -0.65 255.0
474192.62 4423180.17 -0.59 120.0
474192.46 4423180.19 -0.17 130.0
474192.47 4423180.21 -0.66 137.0
474192.5 4423180.19 -0.63 167.0
474192.53 4423180.19 -0.31 140.0
474192.57 4423180.2 -0.15 187.0
474192.6 4423180.19 -0.61 114.0
474192.65 4423180.2 -0.3 0.0
474192.46 4423180.23 -0.69 137.0
474192.47 4423180.23 -0.54 114.0
474192.53 4423180.22 -0.83 157.0
474192.55 4423180.23 -0.18 187.0
474192.59 4423180.22 -0.64 114.0
474192.45 4423180.26 -0.72 147.0
474192.46 4423180.26 -0.56 104.0
474192.5 4423180.26 -0.88 157.0
474192.53 4423180.25 -0.85 164.0
474192.53 4423180.25 -0.21 187.0
474192.56 4423180.26 -0.69 120.0
474192.57 4423180.24 -0.67 120.0
474192.43 4423180.28 -0.74 147.0
474192.44 4423180.28 -0.59 104.0
474192.49 4423180.29 -0.91 164.0
474192.5 4423180.29 -0.78 218.0
474192.52 4423180.27 -0.23 187.0
474192.54 4423180.28 -0.72 120.0
474192.58 4423180.29 -0.55 47.0
474192.59 4423180.27 -0.53 47.0
474192.39 4423180.31 -0.15 151.0
474192.42 4423180.31 -0.77 167.0
474192.43 4423180.3 -0.62 114.0
474192.47 4423180.31 -0.93 164.0
474192.51 4423180.3 -0.26 171.0
474192.53 4423180.3 -0.75 130.0
474192.56 4423180.31 -0.58 50.0
474192.38 4423180.34 -0.18 151.0
474192.41 4423180.34 -0.8 147.0
474192.41 4423180.32 -0.64 114.0
474192.47 4423180.34 -0.31 171.0
474192.49 4423180.32 -0.29 157.0
474192.52 4423180.33 -0.77 114.0
474192.53 4423180.33 -0.12 70.0
474192.55 4423180.33 -0.61 47.0
474192.37 4423180.37 -0.21 164.0
474192.39 4423180.36 -0.82 147.0
474192.4 4423180.35 -0.67 104.0
474192.41 4423180.37 -0.53 130.0
474192.48 4423180.37 -0.83 120.0
474192.49 4423180.35 -0.8 120.0
474192.49 4423180.37 -0.17 73.0
474192.51 4423180.35 -0.15 70.0
474192.54 4423180.37 -0.63 53.0
474192.35 4423180.38 -0.23 151.0
474192.37 4423180.39 -0.73 104.0
474192.37 4423180.38 -0.85 167.0
474192.39 4423180.38 -0.7 104.0
474192.4 4423180.39 -0.55 130.0
474192.46 4423180.39 -0.86 114.0
474192.48 4423180.39 -0.2 70.0
474192.52 4423180.38 -0.66 53.0
474192.35 4423180.42 -0.75 104.0
474192.36 4423180.41 -0.88 167.0
474192.39 4423180.42 -0.58 140.0
474192.45 4423180.41 -0.88 114.0
474192.47 4423180.42 -0.23 70.0
474192.5 4423180.4 -0.69 53.0
474192.54 4423180.41 -0.51 117.0
474192.32 4423180.43 -0.29 151.0
474192.34 4423180.44 -0.78 104.0
474192.34 4423180.43 -0.91 147.0
474192.37 4423180.44 -0.61 130.0
474192.44 4423180.44 -0.91 104.0
474192.46 4423180.44 -0.25 70.0
474192.49 4423180.43 -0.71 53.0
474192.53 4423180.43 -0.54 117.0
474192.31 4423180.46 -0.32 140.0
474192.32 4423180.46 -0.81 104.0
474192.33 4423180.46 -0.93 147.0
474192.34 4423180.45 -0.15 114.0
474192.35 4423180.46 -0.64 130.0
474192.42 4423180.46 -0.94 114.0
474192.44 4423180.46 -0.28 70.0
474192.48 4423180.45 -0.74 53.0
474192.49 4423180.47 -0.59 107.0
474192.51 4423180.45 -0.57 117.0
474192.31 4423180.49 -0.84 104.0
474192.31 4423180.49 -0.2 114.0
474192.33 4423180.48 -0.17 114.0
474192.34 4423180.48 -0.66 140.0
474192.42 4423180.48 -0.31 70.0
474192.45 4423180.49 -0.8 50.0
474192.47 4423180.48 -0.77 50.0
474192.47 4423180.5 -0.14 53.0
474192.48 4423180.5 -0.62 117.0
474192.49 4423180.48 -0.11 47.0
474192.29 4423180.51 -0.86 114.0
474192.33 4423180.51 -0.69 140.0
474192.36 4423180.52 -0.53 187.0
474192.43 4423180.52 -0.82 53.0
474192.46 4423180.52 -0.65 117.0
474192.46 4423180.52 -0.16 57.0
474192.25 4423180.55 -0.92 73.0
474192.27 4423180.54 -0.26 73.0
474192.27 4423180.53 -0.89 114.0
474192.3 4423180.53 -0.23 104.0
474192.31 4423180.53 -0.72 130.0
474192.34 4423180.54 -0.55 187.0
474192.41 4423180.54 -0.85 57.0
474192.44 4423180.54 -0.19 53.0
474192.45 4423180.54 -0.67 117.0
474192.26 4423180.56 -0.28 67.0
474192.28 4423180.58 -0.77 120.0
474192.3 4423180.56 -0.75 120.0
474192.32 4423180.56 -0.58 187.0
474192.38 4423180.58 -0.9 53.0
474192.4 4423180.56 -0.88 50.0
474192.44 4423180.57 -0.22 53.0
474192.44 4423180.56 -0.7 117.0
474192.25 4423180.59 -0.31 67.0
474192.27 4423180.6 -0.8 130.0
474192.31 4423180.59 -0.61 187.0
474192.37 4423180.6 -0.93 53.0
474192.41 4423180.59 -0.24 53.0
474192.43 4423180.59 -0.73 124.0
474192.23 4423180.61 -0.82 120.0
474192.27 4423180.62 -0.17 140.0
474192.28 4423180.63 -0.66 171.0
474192.29 4423180.61 -0.15 130.0
474192.3 4423180.61 -0.63 171.0
474192.38 4423180.63 -0.29 47.0
474192.39 4423180.63 -0.78 117.0
474192.39 4423180.61 -0.27 57.0
474192.4 4423180.61 -0.76 117.0
474192.19 4423180.65 -0.74 137.0
474192.25 4423180.65 -0.2 140.0
474192.26 4423180.65 -0.69 187.0
474192.38 4423180.65 -0.81 117.0
474192.23 4423180.67 -0.23 130.0
474192.24 4423180.67 -0.72 187.0
474192.28 4423180.68 -0.55 73.0
474192.3 4423180.66 -0.52 73.0
474192.36 4423180.67 -0.84 107.0
474192.18 4423180.71 -0.93 90.0
474192.27 4423180.7 -0.58 70.0
474192.35 4423180.7 -0.86 117.0
474192.38 4423180.69 -0.19 107.0
474192.16 4423180.73 -0.17 137.0
474192.18 4423180.73 -0.65 67.0
474192.25 4423180.72 -0.6 73.0
474192.33 4423180.72 -0.89 117.0
474192.35 4423180.73 -0.24 107.0
474192.13 4423180.76 -0.22 137.0
474192.14 4423180.74 -0.19 157.0
474192.14 4423180.76 -0.71 63.0
474192.15 4423180.74 -0.68 67.0
474192.17 4423180.75 -0.82 171.0
474192.22 4423180.74 -0.14 171.0
474192.24 4423180.75 -0.63 70.0
474192.3 4423180.76 -0.94 117.0
474192.31 4423180.74 -0.92 117.0
474192.35 4423180.76 -0.27 117.0
474192.33 4423180.78 -0.29 117.0
474192.17 4423180.8 -0.56 40.0
474192.23 4423180.81 -0.54 47.0
474192.26 4423180.8 -0.51 53.0
474192.33 4423180.8 -0.81 97.0
474192.15 4423180.82 -0.25 120.0
474192.16 4423180.82 -0.74 70.0
474192.16 4423180.82 -0.59 43.0
474192.2 4423180.84 -0.91 90.0
474192.24 4423180.83 -0.89 90.0
474192.14 4423180.85 -0.27 97.0
474192.15 4423180.85 -0.77 70.0
474192.15 4423180.86 -0.13 67.0
474192.19 4423180.86 -0.94 90.0
474192.3 4423180.85 -0.86 100.0
474192.16 4423180.87 -0.62 47.0
474192.13 4423180.91 -0.18 80.0
474192.15 4423180.9 -0.16 73.0
474192.18 4423180.91 -0.65 53.0
474192.12 4423180.94 -0.21 13.0
474192.14 4423180.95 -0.7 13.0
474192.21 4423180.95 -0.51 100.0
474192.18 4423181.01 -0.56 10.0
474202.539999 4423163.47 0.79 13.0
474202.359999 4423163.5 0.59 83.0
474202.369999 4423163.51 0.09 53.0
474202.38 4423163.5 0.61 157.0
474202.4 4423163.51 0.13 97.0
474202.42 4423163.49 0.15 3.0
474202.449999 4423163.5 0.69 104.0
474202.47 4423163.5 0.2 137.0
474202.520001 4423163.5 0.77 117.0
474202.529999 4423163.49 0.28 73.0
474202.33 4423163.54 0.04 83.0
474202.38 4423163.53 0.1 57.0
474202.42 4423163.52 0.68 20.0
474202.440001 4423163.53 0.2 13.0
474202.440001 4423163.52 0.66 167.0
474202.520001 4423163.52 0.25 73.0
474202.33 4423163.56 0.54 23.0
474202.369999 4423163.56 0.1 23.0
474202.32 4423163.57 0.01 114.0
474202.369999 4423163.62 0.51 20.0
474202.49 4423163.63 0.13 26.0
474202.430001 4423163.65 0.05 23.0
474202.430001 4423163.67 0.01 26.0
474202.100001 4423163.96 0.76 16.0
474202.07 4423163.97 0.74 16.0
474202.119999 4423163.97 0.29 30.0
474202.15 4423163.97 0.25 23.0
474202.16 4423163.98 0.73 13.0
474202.07 4423164.0 0.71 26.0
474202.090001 4423164.0 0.23 40.0
474202.100001 4423163.99 0.26 40.0
474202.119999 4423164.01 0.81 26.0
474202.07 4423164.03 0.68 40.0
474202.07 4423164.03 0.21 43.0
474202.08 4423164.04 0.76 23.0
474202.090001 4423164.04 0.28 20.0
474202.090001 4423164.02 0.78 20.0
474202.109999 4423164.03 0.31 20.0
474202.15 4423164.02 0.33 13.0
474202.24 4423164.02 0.79 20.0
474202.06 4423164.05 0.18 40.0
474202.06 4423164.06 0.66 43.0
474202.010001 4423164.09 0.07 43.0
474202.020001 4423164.07 0.09 47.0
474202.020001 4423164.09 0.6 40.0
474202.039999 4423164.07 0.63 40.0
474202.06 4423164.08 0.16 33.0
474202.07 4423164.09 0.23 20.0
474202.07 4423164.07 0.73 33.0
474202.08 4423164.09 0.79 10.0
474202.08 4423164.07 0.25 20.0
474202.109999 4423164.08 0.82 10.0
474202.13 4423164.09 0.34 33.0
474202.14 4423164.07 0.85 6.0
474202.16 4423164.07 0.37 16.0
474202.010001 4423164.11 0.58 40.0
474202.05 4423164.11 0.13 36.0
474202.05 4423164.12 0.68 40.0
474202.06 4423164.11 0.2 13.0
474202.07 4423164.1 0.7 40.0
474202.07 4423164.12 0.77 10.0
474202.090001 4423164.12 0.29 36.0
474202.109999 4423164.11 0.32 43.0
474202.17 4423164.12 0.42 53.0
474201.98 4423164.13 0.55 53.0
474202.029999 4423164.14 0.65 43.0
474202.039999 4423164.13 0.11 33.0
474202.14 4423164.14 0.87 40.0
474202.14 4423164.13 0.39 70.0
474201.97 4423164.15 0.52 53.0
474201.99 4423164.17 0.6 53.0
474202.0 4423164.17 0.05 33.0
474202.020001 4423164.15 0.08 33.0
474202.020001 4423164.16 0.63 40.0
474202.039999 4423164.16 0.15 16.0
474202.06 4423164.15 0.18 20.0
474202.07 4423164.15 0.74 20.0
474202.07 4423164.17 0.24 33.0
474202.08 4423164.15 0.27 36.0
474202.119999 4423164.16 0.84 36.0
474202.13 4423164.16 0.37 53.0
474201.959999 4423164.18 0.5 43.0
474201.98 4423164.19 0.57 53.0
474201.98 4423164.19 0.02 43.0
474202.020001 4423164.18 0.12 16.0
474202.039999 4423164.19 0.69 30.0
474202.07 4423164.18 0.71 26.0
474202.100001 4423164.18 0.81 33.0
474202.13 4423164.19 0.34 47.0
474202.15 4423164.19 0.43 40.0
474201.940001 4423164.2 0.47 50.0
474201.97 4423164.22 0.55 53.0
474202.0 4423164.2 0.1 16.0
474202.020001 4423164.21 0.66 20.0
474202.05 4423164.2 0.21 33.0
474202.05 4423164.22 0.19 40.0
474202.090001 4423164.2 0.79 36.0
474202.109999 4423164.21 0.31 47.0
474202.13 4423164.21 0.4 33.0
474202.13 4423164.22 0.88 60.0
474201.949999 4423164.24 0.52 47.0
474201.99 4423164.23 0.07 20.0
474201.99 4423164.25 0.05 20.0
474202.020001 4423164.24 0.64 26.0
474202.039999 4423164.24 0.16 36.0
474202.05 4423164.24 0.73 53.0
474202.08 4423164.23 0.76 36.0
474202.100001 4423164.23 0.29 40.0
474202.119999 4423164.24 0.37 30.0
474202.13 4423164.24 0.85 47.0
474201.89 4423164.27 0.87 36.0
474201.930001 4423164.26 0.49 53.0
474201.97 4423164.27 0.02 20.0
474202.0 4423164.26 0.61 26.0
474202.020001 4423164.27 0.14 33.0
474202.039999 4423164.26 0.71 50.0
474202.090001 4423164.26 0.26 40.0
474202.119999 4423164.26 0.35 30.0
474202.119999 4423164.27 0.83 40.0
474201.88 4423164.29 0.85 33.0
474201.91 4423164.3 0.44 67.0
474201.92 4423164.28 0.47 67.0
474201.97 4423164.3 0.56 36.0
474201.98 4423164.28 0.58 36.0
474202.010001 4423164.29 0.11 33.0
474202.020001 4423164.29 0.68 40.0
474202.05 4423164.3 0.21 33.0
474202.08 4423164.28 0.23 47.0
474202.090001 4423164.29 0.8 36.0
474202.109999 4423164.29 0.32 20.0
474201.859999 4423164.33 0.32 33.0
474201.869999 4423164.31 0.82 30.0
474201.88 4423164.31 0.35 50.0
474201.9 4423164.33 0.42 60.0
474201.949999 4423164.32 0.53 36.0
474201.98 4423164.33 0.06 40.0
474202.0 4423164.31 0.08 36.0
474202.010001 4423164.31 0.65 30.0
474202.010001 4423164.33 0.63 40.0
474202.029999 4423164.31 0.18 36.0
474202.07 4423164.33 0.75 40.0
474202.090001 4423164.31 0.77 47.0
474201.859999 4423164.34 0.79 30.0
474201.869999 4423164.35 0.87 43.0
474201.930001 4423164.34 0.51 33.0
474201.959999 4423164.35 0.03 43.0
474202.020001 4423164.34 0.15 60.0
474202.039999 4423164.35 0.72 50.0
474201.83 4423164.38 0.74 30.0
474201.840001 4423164.36 0.77 30.0
474201.840001 4423164.38 0.26 30.0
474201.859999 4423164.36 0.29 26.0
474201.859999 4423164.37 0.84 43.0
474201.88 4423164.38 0.37 40.0
474201.89 4423164.36 0.39 60.0
474201.92 4423164.36 0.48 40.0
474201.930001 4423164.37 0.01 43.0
474201.98 4423164.38 0.58 57.0
474201.99 4423164.38 0.1 53.0
474202.0 4423164.36 0.61 40.0
474202.010001 4423164.36 0.13 50.0
474202.029999 4423164.37 0.69 53.0
474202.06 4423164.38 0.22 20.0
474201.82 4423164.4 0.72 30.0
474201.82 4423164.4 0.24 26.0
474201.850001 4423164.4 0.81 40.0
474201.869999 4423164.4 0.34 30.0
474201.89 4423164.41 0.43 43.0
474201.9 4423164.39 0.45 43.0
474201.959999 4423164.4 0.55 60.0
474201.99 4423164.41 0.08 50.0
474202.029999 4423164.4 0.67 36.0
474202.039999 4423164.4 0.19 20.0
474201.83 4423164.42 0.79 40.0
474201.859999 4423164.43 0.31 30.0
474201.869999 4423164.43 0.88 53.0
474201.89 4423164.43 0.4 33.0
474201.940001 4423164.42 0.53 53.0
474201.97 4423164.43 0.05 50.0
474202.020001 4423164.43 0.64 50.0
474202.020001 4423164.42 0.16 20.0
474201.8 4423164.46 0.73 40.0
474201.82 4423164.44 0.76 40.0
474201.840001 4423164.45 0.29 30.0
474201.850001 4423164.44 0.1 3.0
474201.859999 4423164.46 0.85 50.0
474201.88 4423164.46 0.38 20.0
474201.91 4423164.46 0.14 6.0
474201.91 4423164.46 0.47 53.0
474201.930001 4423164.44 0.5 53.0
474201.930001 4423164.44 0.17 6.0
474201.949999 4423164.45 0.03 40.0
474201.99 4423164.46 0.11 20.0
474202.010001 4423164.45 0.62 47.0
474202.010001 4423164.44 0.14 26.0
474201.789999 4423164.48 0.71 40.0
474201.840001 4423164.47 0.07 10.0
474201.850001 4423164.48 0.26 36.0
474201.859999 4423164.48 0.35 20.0
474201.859999 4423164.48 0.82 43.0
474201.89 4423164.48 0.6 13.0
474201.930001 4423164.48 0.63 0.0
474201.97 4423164.48 0.09 20.0
474201.99 4423164.47 0.59 47.0
474201.770001 4423164.5 0.68 33.0
474201.789999 4423164.51 0.21 10.0
474201.8 4423164.5 0.02 10.0
474201.82 4423164.5 0.23 13.0
474201.840001 4423164.5 0.8 40.0
474201.850001 4423164.51 0.32 20.0
474201.88 4423164.5 0.09 6.0
474201.89 4423164.51 0.42 63.0
474201.9 4423164.49 0.45 63.0
474201.9 4423164.49 0.12 6.0
474201.959999 4423164.51 0.54 50.0
474201.97 4423164.49 0.56 60.0
474201.74 4423164.54 0.56 30.0
474201.75 4423164.52 0.59 33.0
474201.770001 4423164.53 0.18 10.0
474201.770001 4423164.53 0.66 33.0
474201.8 4423164.54 0.75 36.0
474201.82 4423164.52 0.77 33.0
474201.83 4423164.52 0.3 16.0
474201.859999 4423164.52 0.06 6.0
474201.869999 4423164.53 0.87 33.0
474201.88 4423164.54 0.39 60.0
474201.930001 4423164.53 0.51 63.0
474201.959999 4423164.53 0.04 26.0
474201.73 4423164.56 0.53 30.0
474201.73 4423164.56 0.06 20.0
474201.760001 4423164.55 0.16 10.0
474201.760001 4423164.55 0.63 43.0
474201.770001 4423164.56 0.46 6.0
474201.789999 4423164.56 0.72 43.0
474201.83 4423164.55 0.27 13.0
474201.859999 4423164.56 0.04 13.0
474201.869999 4423164.56 0.84 26.0
474201.869999 4423164.55 0.37 67.0
474201.92 4423164.55 0.48 63.0
474201.940001 4423164.55 0.01 30.0
474201.709999 4423164.58 0.51 33.0
474201.75 4423164.58 0.61 40.0
474201.75 4423164.57 0.13 10.0
474201.760001 4423164.59 0.43 20.0
474201.770001 4423164.59 0.69 30.0
474201.779999 4423164.58 0.22 6.0
474201.82 4423164.58 0.24 16.0
474201.840001 4423164.58 0.82 30.0
474201.859999 4423164.58 0.34 60.0
474201.89 4423164.59 0.43 70.0
474201.9 4423164.57 0.46 73.0
474201.709999 4423164.61 0.01 43.0
474201.73 4423164.6 0.03 43.0
474201.73 4423164.6 0.58 40.0
474201.74 4423164.6 0.1 13.0
474201.770001 4423164.61 0.19 6.0
474201.770001 4423164.61 0.67 33.0
474201.82 4423164.62 0.76 26.0
474201.83 4423164.62 0.29 30.0
474201.83 4423164.6 0.79 30.0
474201.840001 4423164.6 0.32 33.0
474201.850001 4423164.61 0.88 53.0
474201.869999 4423164.61 0.41 73.0
474201.88 4423164.62 0.01 16.0
474201.699999 4423164.64 0.53 43.0
474201.72 4423164.63 0.55 43.0
474201.73 4423164.63 0.38 93.0
474201.75 4423164.64 0.08 36.0
474201.760001 4423164.63 0.17 6.0
474201.760001 4423164.64 0.64 36.0
474201.8 4423164.64 0.74 16.0
474201.850001 4423164.63 0.85 40.0
474201.680001 4423164.66 0.5 43.0
474201.680001 4423164.66 0.32 20.0
474201.72 4423164.66 0.11 6.0
474201.74 4423164.66 0.05 43.0
474201.74 4423164.65 0.14 6.0
474201.75 4423164.66 0.62 40.0
474201.789999 4423164.67 0.71 26.0
474201.82 4423164.65 0.83 47.0
474201.82 4423164.65 0.26 30.0
474201.859999 4423164.67 0.35 63.0
474201.88 4423164.65 0.38 77.0
474201.66 4423164.68 0.47 50.0
474201.72 4423164.68 0.03 50.0
474201.73 4423164.68 0.59 36.0
474201.760001 4423164.68 0.68 16.0
474201.779999 4423164.69 0.21 10.0
474201.82 4423164.68 0.24 26.0
474201.82 4423164.68 0.8 36.0
474201.850001 4423164.69 0.33 40.0
474201.65 4423164.71 0.45 40.0
474201.680001 4423164.7 0.3 6.0
474201.709999 4423164.7 0.56 47.0
474201.74 4423164.71 0.09 13.0
474201.760001 4423164.71 0.66 26.0
474201.770001 4423164.71 0.19 10.0
474201.82 4423164.7 0.78 47.0
474201.83 4423164.71 0.86 60.0
474201.83 4423164.71 0.3 40.0
474201.619999 4423164.75 0.87 36.0
474201.64 4423164.73 0.42 33.0
474201.65 4423164.75 0.24 20.0
474201.690001 4423164.75 0.51 57.0
474201.699999 4423164.73 0.54 47.0
474201.73 4423164.75 0.13 10.0
474201.73 4423164.74 0.06 26.0
474201.75 4423164.73 0.16 10.0
474201.760001 4423164.74 0.63 26.0
474201.81 4423164.73 0.75 50.0
474201.82 4423164.73 0.28 40.0
474201.83 4423164.74 0.84 47.0
474201.66 4423164.76 0.49 50.0
474201.67 4423164.76 0.83 70.0
474201.699999 4423164.76 0.27 20.0
474201.709999 4423164.76 0.03 36.0
474201.72 4423164.77 0.11 10.0
474201.74 4423164.76 0.61 30.0
474201.8 4423164.76 0.72 47.0
474201.82 4423164.76 0.25 40.0
474201.58 4423164.8 0.17 13.0
474201.66 4423164.79 0.46 36.0
474201.67 4423164.78 0.78 97.0
474201.680001 4423164.8 0.23 3.0
474201.699999 4423164.8 0.4 43.0
474201.699999 4423164.78 0.01 26.0
474201.699999 4423164.8 0.56 36.0
474201.709999 4423164.79 0.26 3.0
474201.72 4423164.78 0.58 36.0
474201.74 4423164.8 0.35 30.0
474201.770001 4423164.79 0.81 36.0
474201.770001 4423164.8 0.67 50.0
474201.779999 4423164.8 0.2 13.0
474201.789999 4423164.78 0.7 43.0
474201.8 4423164.78 0.22 26.0
474201.58 4423164.83 0.14 20.0
474201.67 4423164.83 0.21 10.0
474201.67 4423164.83 0.43 40.0
474201.690001 4423164.82 0.53 30.0
474201.709999 4423164.81 0.3 100.0
474201.72 4423164.83 0.06 36.0
474201.73 4423164.81 0.08 16.0
474201.73 4423164.83 0.33 63.0
474201.75 4423164.81 0.17 13.0
474201.75 4423164.82 0.65 53.0
474201.56 4423164.85 0.11 13.0
474201.66 4423164.85 0.18 10.0
474201.67 4423164.84 0.5 20.0
474201.709999 4423164.85 0.12 13.0
474201.74 4423164.84 0.15 13.0
474201.74 4423164.84 0.62 60.0
474201.67 4423164.87 0.48 26.0
474201.690001 4423164.88 0.57 50.0
474201.699999 4423164.86 0.03 36.0
474201.709999 4423164.88 0.09 10.0
474201.72 4423164.86 0.59 60.0
474201.72 4423164.86 0.85 80.0
474201.74 4423164.86 0.38 93.0
474201.760001 4423164.88 0.68 63.0
474201.67 4423164.9 0.16 10.0
474201.74 4423164.9 0.65 73.0
474201.74 4423164.89 0.18 6.0
474201.600001 4423164.92 0.6 6.0
474201.600001 4423164.93 0.09 23.0
474201.609999 4423164.92 0.1 10.0
474201.64 4423164.92 0.62 23.0
474201.72 4423164.92 0.54 36.0
474201.73 4423164.92 0.63 77.0
474201.73 4423164.92 0.15 6.0
474201.510001 4423164.95 0.01 20.0
474201.56 4423164.96 0.03 20.0
474201.57 4423164.94 0.06 23.0
474201.58 4423164.96 0.05 10.0
474201.590001 4423164.94 0.08 10.0
474201.709999 4423164.94 0.6 63.0
474201.72 4423164.95 0.12 6.0
474201.58 4423165.01 0.02 10.0
474201.67 4423165.02 0.11 6.0
474201.5 4423165.09 0.41 255.0
474201.529999 4423165.08 0.44 154.0
474201.63 4423165.09 0.03 6.0
474201.48 4423165.1 0.38 248.0
474201.459999 4423165.37 0.2 6.0
474201.430001 4423165.42 0.15 6.0
474201.42 4423165.45 0.12 6.0
474201.4 4423165.47 0.1 6.0
474201.369999 4423165.51 0.04 13.0
474201.39 4423165.5 0.07 6.0
474201.14 4423165.56 0.37 50.0
474201.16 4423165.56 0.86 67.0
474201.190001 4423165.57 0.37 50.0
474201.22 4423165.57 0.4 147.0
474201.260001 4423165.59 0.43 114.0
474201.33 4423165.59 0.45 241.0
474201.100001 4423165.61 0.36 93.0
474201.119999 4423165.6 0.87 36.0
474201.23 4423165.6 0.4 47.0
474201.3 4423165.6 0.43 151.0
474201.08 4423165.64 0.81 36.0
474201.090001 4423165.64 0.34 90.0
474201.090001 4423165.62 0.84 36.0
474201.209999 4423165.64 0.42 36.0
474201.25 4423165.64 0.45 93.0
474201.08 4423165.65 0.87 40.0
474201.100001 4423165.65 0.39 47.0
474201.16 4423165.67 0.42 33.0
474201.08 4423165.68 0.85 43.0
474201.090001 4423165.68 0.37 47.0
474201.06 4423165.72 0.32 47.0
474201.07 4423165.71 0.82 47.0
474201.08 4423165.7 0.34 40.0
474201.109999 4423165.7 0.44 77.0
474201.16 4423165.7 0.46 53.0
474201.25 4423165.7 0.45 40.0
474201.020001 4423165.75 0.68 36.0
474201.020001 4423165.75 0.21 43.0
474201.029999 4423165.73 0.71 33.0
474201.039999 4423165.75 0.77 47.0
474201.05 4423165.75 0.29 40.0
474201.06 4423165.73 0.79 47.0
474201.08 4423165.74 0.39 83.0
474201.08 4423165.75 0.86 30.0
474201.109999 4423165.73 0.41 83.0
474201.16 4423165.75 0.5 43.0
474201.16 4423165.75 0.02 10.0
474201.010001 4423165.77 0.18 47.0
474201.029999 4423165.77 0.26 20.0
474201.029999 4423165.77 0.74 47.0
474201.07 4423165.77 0.36 60.0
474201.13 4423165.77 0.47 67.0
474201.15 4423165.77 0.0 10.0
474200.99 4423165.8 0.16 47.0
474201.020001 4423165.79 0.24 20.0
474201.029999 4423165.8 0.72 53.0
474201.06 4423165.79 0.33 60.0
474201.07 4423165.8 0.81 33.0
474201.08 4423165.78 0.83 30.0
474201.119999 4423165.79 0.45 93.0
474200.98 4423165.82 0.13 43.0
474201.0 4423165.82 0.69 47.0
474201.020001 4423165.82 0.21 20.0
474201.039999 4423165.82 0.78 33.0
474201.05 4423165.81 0.31 60.0
474201.07 4423165.83 0.87 33.0
474201.090001 4423165.83 0.4 93.0
474201.100001 4423165.81 0.42 117.0
474201.14 4423165.83 0.5 26.0
474201.16 4423165.81 0.53 20.0
474201.17 4423165.81 0.06 13.0
474200.97 4423165.85 0.58 36.0
474200.97 4423165.85 0.1 47.0
474200.99 4423165.85 0.66 60.0
474201.0 4423165.84 0.19 20.0
474201.029999 4423165.84 0.76 30.0
474201.029999 4423165.84 0.28 40.0
474201.13 4423165.85 0.48 50.0
474201.14 4423165.85 0.01 13.0
474201.16 4423165.84 0.03 13.0
474200.949999 4423165.87 0.56 33.0
474200.959999 4423165.88 0.61 47.0
474200.959999 4423165.88 0.08 53.0
474200.97 4423165.86 0.64 47.0
474200.99 4423165.86 0.16 20.0
474201.020001 4423165.86 0.26 26.0
474201.029999 4423165.87 0.73 30.0
474201.05 4423165.88 0.82 43.0
474201.06 4423165.88 0.34 87.0
474201.07 4423165.86 0.84 40.0
474201.08 4423165.86 0.37 93.0
474201.109999 4423165.87 0.45 57.0
474200.949999 4423165.9 0.05 47.0
474200.97 4423165.89 0.13 20.0
474200.99 4423165.9 0.2 23.0
474201.010001 4423165.89 0.7 33.0
474201.020001 4423165.89 0.23 26.0
474201.05 4423165.9 0.79 40.0
474201.06 4423165.9 0.32 67.0
474201.100001 4423165.89 0.43 47.0
474200.92 4423165.91 0.5 33.0
474200.930001 4423165.92 0.02 47.0
474200.949999 4423165.91 0.59 47.0
474200.959999 4423165.91 0.11 20.0
474200.97 4423165.93 0.65 33.0
474200.98 4423165.93 0.18 23.0
474201.0 4423165.91 0.68 30.0
474201.020001 4423165.92 0.76 33.0
474201.039999 4423165.93 0.29 60.0
474201.090001 4423165.92 0.4 50.0
474200.930001 4423165.96 0.53 47.0
474200.940001 4423165.96 0.13 16.0
474200.940001 4423165.94 0.56 53.0
474200.940001 4423165.96 0.06 20.0
474200.949999 4423165.94 0.08 20.0
474200.959999 4423165.95 0.63 33.0
